# .PCD v0.7 - Point Cloud Data file format
VERSION 0.7
FIELDS x y z
SIZE 4 4 4
TYPE F F F
COUNT 1 1 1
WIDTH 1053
HEIGHT 1
VIEWPOINT 0 0 0 1 0 0 0
POINTS 1053
DATA ascii
0.032480955 -0.67868102 1.7950001
0.056697145 -0.73534483 1.8040001
0.15978287 -0.73706293 1.8040001
0.17524573 -0.73362672 1.8040001
0.029207621 -0.69411051 1.8040001
0.034361906 -0.69411051 1.8040001
0.029207621 -0.68895626 1.8040001
0.034705527 -0.68620735 1.8040001
0.03264381 -0.67864764 1.8040001
0.074287623 -0.74114865 1.8140001
0.088108577 -0.74114859 1.8140001
0.14684764 -0.74114859 1.8140001
0.15030287 -0.74114859 1.8140001
0.16585144 -0.74114859 1.8140001
0.17103429 -0.74114859 1.8140001
0.22286287 -0.74114859 1.8140001
0.2349562 -0.74114859 1.8140001
0.2435943 -0.74114865 1.8140001
0.2522324 -0.74114859 1.8140001
0.28851241 -0.74114859 1.8140001
0.29715049 -0.74114859 1.8140001
0.304061 -0.74114859 1.8140001
0.044918098 -0.73251057 1.8140001
0.05312429 -0.73380625 1.8140001
0.063921914 -0.73380625 1.8140001
0.074287623 -0.73423815 1.814
0.08465334 -0.73078293 1.8140001
0.14684764 -0.73078293 1.8140001
0.15721335 -0.73769337 1.8140001
0.16239621 -0.73423815 1.8140001
0.17448954 -0.73538989 1.8140001
0.18485525 -0.73216504 1.8140001
0.19176573 -0.73251057 1.8140001
0.21940763 -0.73078293 1.8140001
0.22631811 -0.73380625 1.8140001
0.23495622 -0.73596573 1.8140001
0.24290323 -0.73631132 1.8140001
0.25050479 -0.73769337 1.8140001
0.2988781 -0.73769337 1.8140001
0.30233335 -0.73769337 1.8140001
0.043190479 -0.72732764 1.8140001
0.054543406 -0.72436607 1.8140001
0.063921906 -0.72387242 1.814
0.073300414 -0.72436607 1.8140001
0.08465334 -0.72732764 1.8140001
0.14454414 -0.72617584 1.8140001
0.15721335 -0.72732764 1.8140001
0.16066858 -0.72732764 1.8140001
0.22631809 -0.72387242 1.814
0.23438032 -0.72156888 1.8140001
0.036280002 -0.71005148 1.8140001
0.057011437 -0.7135067 1.8140001
0.063921899 -0.71350676 1.814
0.071696192 -0.71264291 1.8140001
0.22631812 -0.71696204 1.8140001
0.23322859 -0.71696198 1.8140001
0.035128254 -0.70429277 1.8140001
0.039735239 -0.69450295 1.8140001
0.2159524 -0.69968575 1.8140001
0.038007621 -0.68586481 1.8140001
0.035128254 -0.67780256 1.8140001
0.065432377 -0.74407625 1.824
0.084425151 -0.74314976 1.8240001
0.092068575 -0.74349719 1.8240001
0.10770286 -0.74349719 1.8240001
0.11986286 -0.74523431 1.8240001
0.12449525 -0.74407625 1.824
0.14418286 -0.74176008 1.824
0.15460573 -0.74349719 1.8240001
0.16850287 -0.74176008 1.8240001
0.20672001 -0.74349719 1.8240001
0.21366858 -0.74349719 1.8240002
0.22409144 -0.74349719 1.8240001
0.23104002 -0.74523431 1.8240001
0.25536001 -0.74176008 1.8240001
0.27690059 -0.74314976 1.8240001
0.28489146 -0.74349719 1.8240001
0.29357716 -0.74262863 1.8240001
0.30747432 -0.74176008 1.8240001
0.31442288 -0.74523431 1.8240001
0.046902861 -0.73133719 1.8240001
0.08512 -0.73828578 1.824
0.092068575 -0.73481148 1.824
0.10596572 -0.73828578 1.8240001
0.11986286 -0.73133719 1.8240001
0.12472687 -0.73411667 1.8240001
0.13376002 -0.73307437 1.8240002
0.143488 -0.73550642 1.8240001
0.15417144 -0.7352457 1.8240002
0.16676572 -0.73481148 1.8240001
0.17458287 -0.73568004 1.8240001
0.1858743 -0.73828578 1.8240001
0.20672001 -0.73481148 1.8240001
0.2141649 -0.73580414 1.8240002
0.22061716 -0.73481148 1.8240001
0.23625144 -0.73307437 1.8240001
0.24493714 -0.73423243 1.8240002
0.25436738 -0.73530781 1.8240002
0.26404572 -0.73133719 1.8240001
0.27670208 -0.73580414 1.8240002
0.28454402 -0.73550636 1.8240001
0.29407349 -0.73580414 1.8240002
0.30356574 -0.73524582 1.8240002
0.03995429 -0.72786289 1.8240001
0.045165718 -0.7243886 1.8240002
0.051245715 -0.72352004 1.8240001
0.077302858 -0.72352004 1.8240001
0.085120015 -0.72786289 1.824
0.092068575 -0.72786289 1.8240001
0.13376002 -0.7243886 1.8240002
0.14368653 -0.7243886 1.8240002
0.15113144 -0.72612572 1.8240001
0.1627124 -0.72670478 1.824
0.21575315 -0.72369373 1.8240001
0.22061716 -0.7243886 1.824
0.23798859 -0.7243886 1.8240001
0.24285257 -0.72508347 1.8240001
0.25536001 -0.7243886 1.8240001
0.26346669 -0.72207242 1.824
0.03995429 -0.71222866 1.8240001
0.045165718 -0.71396571 1.8240002
0.053272381 -0.71396571 1.8240002
0.064274289 -0.71049148 1.824
0.075392 -0.71396577 1.8240001
0.1326019 -0.71628195 1.824
0.14070858 -0.71744007 1.8240001
0.16329144 -0.7122286 1.8240001
0.19977145 -0.71222866 1.8240001
0.20498288 -0.71222866 1.8240001
0.21410286 -0.71353155 1.8240002
0.22409146 -0.71396577 1.8240002
0.23408 -0.71396583 1.8240002
0.2432 -0.71049148 1.8240001
0.25362289 -0.71396577 1.8240001
0.26404572 -0.71744007 1.8240001
0.03995429 -0.70528007 1.8240001
0.04481829 -0.70284808 1.8240001
0.055588577 -0.70528007 1.8240001
0.064274289 -0.70701718 1.824
0.15634286 -0.70701718 1.8240001
0.1638705 -0.70585912 1.824
0.19890288 -0.70267433 1.8240001
0.20498288 -0.70354289 1.8240002
0.21323429 -0.70354283 1.8240002
0.22365716 -0.70397711 1.8240002
0.2345143 -0.70354289 1.8240002
0.24493715 -0.7056275 1.8240001
0.25362289 -0.70528001 1.8240001
0.045165718 -0.69485724 1.8240001
0.050377145 -0.69485724 1.8240001
0.19282287 -0.69659436 1.8240001
0.03995429 -0.68790865 1.8240001
0.043428574 -0.68617147 1.8240001
0.097759999 -0.74542004 1.8330001
0.10474286 -0.74454719 1.8330001
0.11521715 -0.74542004 1.8330001
0.12394572 -0.74367434 1.8330001
0.13442001 -0.74542004 1.8329999
0.14256668 -0.74658388 1.8330001
0.20355029 -0.74611837 1.8329999
0.26410168 -0.74542004 1.8330001
0.2714586 -0.74629295 1.8330001
0.3153924 -0.74483818 1.8330001
0.32295716 -0.7454201 1.8330001
0.33605003 -0.74629295 1.8330001
0.097759999 -0.73494577 1.8330001
0.10648857 -0.73494577 1.8329999
0.11521715 -0.73494577 1.8330001
0.12307286 -0.73320001 1.8330001
0.1571143 -0.73145431 1.8330001
0.16933429 -0.73843718 1.8330001
0.17864478 -0.73378199 1.8330001
0.19726573 -0.73843718 1.8330001
0.20494688 -0.73494577 1.8329999
0.21297717 -0.73320007 1.8330001
0.24963716 -0.73320007 1.8330001
0.25487429 -0.73145431 1.8330001
0.26310411 -0.73494577 1.8330001
0.27357841 -0.73394823 1.8330001
0.28455144 -0.73261815 1.8330001
0.29432744 -0.73285091 1.8329999
0.30637288 -0.73232722 1.8330001
0.31597427 -0.73494577 1.8329999
0.32435372 -0.73494577 1.8329999
0.33517718 -0.73843718 1.8330001
0.040151432 -0.72447139 1.8330001
0.085103579 -0.72447151 1.8330001
0.09252286 -0.72796291 1.8330001
0.10736144 -0.72621715 1.8330001
0.11521715 -0.72447151 1.8330001
0.12394573 -0.72447151 1.8329999
0.13791144 -0.72098005 1.8330001
0.14722191 -0.72214383 1.8330001
0.15580501 -0.72403508 1.8330001
0.16444631 -0.72377318 1.8329999
0.17980859 -0.72796291 1.8330001
0.19586915 -0.72377318 1.8329999
0.20424859 -0.72447151 1.8329999
0.21123143 -0.72447151 1.8330001
0.24730955 -0.72330767 1.8330001
0.25400144 -0.72447145 1.8330001
0.26185715 -0.7253443 1.8330001
0.27364072 -0.72490793 1.8330001
0.28280574 -0.72621715 1.8330001
0.29560763 -0.72563529 1.8330001
0.30506361 -0.72403508 1.8330001
0.31422859 -0.72272575 1.8330001
0.33343145 -0.72447145 1.8330001
0.047134288 -0.71050578 1.8330001
0.050625719 -0.71225148 1.8330001
0.075065725 -0.71166962 1.8330001
0.085540004 -0.71748859 1.8330001
0.10823429 -0.71399719 1.8330001
0.11521715 -0.71399719 1.8330001
0.12394571 -0.71399724 1.8329999
0.13442001 -0.71356082 1.8330001
0.1448943 -0.71399724 1.8329999
0.15486981 -0.71499479 1.8330001
0.16933429 -0.71399719 1.8330001
0.17631716 -0.7139973 1.8329999
0.18562762 -0.7128334 1.8330001
0.1937743 -0.7139973 1.8329999
0.23916288 -0.71748865 1.8330001
0.24701858 -0.71661574 1.8330001
0.25545621 -0.71632481 1.8330001
0.26360288 -0.7139973 1.8329999
0.27198231 -0.71469551 1.8329999
0.29677147 -0.71225148 1.8330001
0.30506361 -0.71356082 1.8330001
0.31387943 -0.71329892 1.8329999
0.054117147 -0.702941 1.8330001
0.064591438 -0.70352286 1.8329999
0.073320009 -0.70352286 1.8330001
0.10910715 -0.70265007 1.8330001
0.11521715 -0.70352286 1.8330001
0.12394573 -0.7035228 1.8329999
0.13441999 -0.7035228 1.8329999
0.1448943 -0.70352292 1.8329999
0.15536858 -0.70352292 1.8329999
0.16534409 -0.70352286 1.8330001
0.17631716 -0.70352292 1.8329999
0.18504572 -0.70352292 1.8330001
0.19327554 -0.70402175 1.8330001
0.20424859 -0.70003146 1.8330001
0.21472287 -0.70003146 1.8330001
0.22607002 -0.70090437 1.8330001
0.23567145 -0.70003146 1.8330001
0.24614573 -0.70252532 1.8330001
0.25487429 -0.70177722 1.8330001
0.26360288 -0.70352292 1.8329999
0.27174953 -0.70235914 1.8330001
0.30550003 -0.70452052 1.8330001
0.31248286 -0.70526862 1.8330001
0.047134288 -0.6930486 1.8330001
0.05481543 -0.69444513 1.8329999
0.063893147 -0.69514346 1.8329999
0.071574293 -0.69654006 1.8330001
0.11579905 -0.69537622 1.8330001
0.12569143 -0.69654006 1.8330001
0.13442001 -0.69479424 1.8330001
0.1448943 -0.69479424 1.8330001
0.15449573 -0.69566721 1.8330001
0.16409716 -0.69654006 1.8330001
0.17980859 -0.69654006 1.8330001
0.18679143 -0.69654006 1.8330001
0.19447258 -0.69514352 1.8329999
0.20424859 -0.69566715 1.8330001
0.21472287 -0.69654006 1.8330001
0.22519715 -0.69654006 1.8330001
0.23567145 -0.69479436 1.8330001
0.24265431 -0.6947943 1.8330001
0.25312859 -0.6947943 1.8330001
0.30550003 -0.69479424 1.8330001
0.31422859 -0.6930486 1.8330001
0.044141632 -0.68556696 1.8330001
0.054117147 -0.68606573 1.8329999
0.062845714 -0.68606573 1.8330001
0.13442001 -0.68606573 1.8329999
0.14373049 -0.68722957 1.8330001
0.15187715 -0.68606573 1.8330001
0.18679143 -0.68955719 1.8330001
0.19552 -0.68606573 1.8330001
0.20250288 -0.68955719 1.8330001
0.044141632 -0.67658901 1.8330001
0.054117143 -0.67559147 1.8329999
0.062845714 -0.67559147 1.8330001
0.13791144 -0.67559147 1.8330001
0.1448943 -0.67559147 1.8329999
0.15187715 -0.67559147 1.8330001
0.19726573 -0.67908293 1.8330001
0.047134288 -0.66686291 1.8330001
0.054117147 -0.6651172 1.8329999
0.061100002 -0.6651172 1.8330001
0.13529286 -0.66773576 1.8330001
0.1448943 -0.6651172 1.8329999
0.15275002 -0.66424429 1.8330001
0.054553576 -0.65420651 1.8330001
0.062845714 -0.65464288 1.8330001
0.14559259 -0.6567378 1.8329999
0.15327373 -0.65534127 1.8329999
0.20250288 -0.65638864 1.8330001
0.055280954 -0.6453324 1.8330001
0.062496573 -0.64486688 1.8329999
0.057608575 -0.63718575 1.8330001
0.16584286 -0.63194859 1.8330001
0.26504096 -0.75299722 1.8430001
0.32822955 -0.75299722 1.8430001
0.33174002 -0.75299722 1.8430001
0.19834192 -0.74597627 1.8430001
0.20360763 -0.74597627 1.8430001
0.32559669 -0.74773151 1.8430001
0.33314422 -0.74667829 1.8430001
0.34227145 -0.74246573 1.8430001
0.096538104 -0.73193431 1.8430001
0.10004858 -0.73193431 1.8430001
0.17332977 -0.73500597 1.8430002
0.18605524 -0.73544478 1.8430001
0.19439265 -0.73588359 1.8430002
0.20302255 -0.7377851 1.8430001
0.28961429 -0.73368955 1.8430001
0.31418765 -0.73193431 1.8430001
0.32559669 -0.73368955 1.8430001
0.3352505 -0.73544478 1.8430002
0.089517146 -0.72842383 1.8430001
0.094782859 -0.72491336 1.8430001
0.10312025 -0.72535217 1.8430002
0.11058 -0.72842383 1.8430001
0.17376858 -0.7266686 1.8430001
0.18430002 -0.72591633 1.8430002
0.19132097 -0.7266686 1.8430001
0.27908286 -0.72315812 1.8430001
0.28660533 -0.72391033 1.8430002
0.29400241 -0.72403574 1.8430001
0.30014575 -0.72315812 1.8430001
0.31418765 -0.72140288 1.8430001
0.32471907 -0.72491336 1.8430002
0.3352505 -0.72447455 1.8430002
0.078985721 -0.7126267 1.8430001
0.086006671 -0.71438193 1.8430002
0.094782859 -0.71438193 1.8430001
0.10255606 -0.71388042 1.8430002
0.18605524 -0.71789241 1.8430001
0.27767867 -0.71367985 1.8430001
0.28610381 -0.71438193 1.8430002
0.29400241 -0.71350431 1.8430001
0.30014575 -0.71087146 1.8430001
0.31769812 -0.71087146 1.8430001
0.32471907 -0.71438193 1.8430002
0.3352505 -0.71438193 1.8430002
0.078108102 -0.70297289 1.8430001
0.086006671 -0.70385051 1.8430002
0.094782859 -0.70385051 1.8430001
0.10312025 -0.70385051 1.8430002
0.11058 -0.70034003 1.8430001
0.12111144 -0.70034003 1.8430001
0.17289096 -0.70121765 1.8430001
0.18430001 -0.70034003 1.8430001
0.22642574 -0.70034003 1.8430001
0.24748859 -0.70034003 1.8430001
0.25450954 -0.70034003 1.8430001
0.26504096 -0.70034003 1.8430001
0.2760739 -0.70385045 1.8430002
0.28610381 -0.70385051 1.8430002
0.29488003 -0.70385051 1.8430001
0.30102336 -0.70385051 1.8430001
0.3153578 -0.70326543 1.8430001
0.32208622 -0.70297289 1.8430001
0.068454288 -0.69507432 1.8430001
0.075475246 -0.69507432 1.8430001
0.086006671 -0.69507432 1.8430001
0.094782859 -0.69507432 1.8430001
0.10355905 -0.69507432 1.8430001
0.1133884 -0.69472325 1.8430001
0.12462192 -0.69507432 1.8430001
0.15797144 -0.69507432 1.8430001
0.16499239 -0.69507432 1.8430001
0.17376858 -0.69507432 1.8430001
0.18359791 -0.69542539 1.8430001
0.19132097 -0.69507432 1.8430001
0.20653303 -0.6956594 1.8430001
0.21501668 -0.69595194 1.8430001
0.22712782 -0.69542539 1.8430001
0.23520193 -0.69331908 1.8430001
0.24485573 -0.6941967 1.8430001
0.25450954 -0.69472325 1.8430001
0.26504096 -0.69507432 1.8430001
0.27557239 -0.69507432 1.8430001
0.28610381 -0.69507432 1.8430001
0.29546511 -0.6956594 1.8430001
0.3027786 -0.6941967 1.8430001
0.31418765 -0.69331908 1.8430001
0.32401699 -0.69542539 1.8430001
0.068454288 -0.68629813 1.8430001
0.075475246 -0.68629813 1.8430002
0.085003681 -0.68679959 1.8430002
0.096538104 -0.68629813 1.8430001
0.10399787 -0.68673694 1.8430002
0.11409049 -0.68629813 1.8430002
0.12462192 -0.68629813 1.8430002
0.1333981 -0.68278766 1.8430001
0.1480251 -0.68746829 1.8430001
0.15797144 -0.68629813 1.8430001
0.16499239 -0.68629813 1.8430001
0.17727906 -0.68980861 1.8430001
0.18430001 -0.68629813 1.8430002
0.19219859 -0.68542051 1.8430001
0.20360763 -0.68629813 1.8430001
0.22876604 -0.68863845 1.8430001
0.23520193 -0.68805337 1.8430001
0.24280794 -0.68863845 1.8430001
0.25450954 -0.68980861 1.8430001
0.26591858 -0.68893099 1.8430001
0.27557239 -0.68629813 1.8430002
0.28610381 -0.68629813 1.8430002
0.29312479 -0.68278766 1.8430001
0.30541146 -0.68629813 1.8430001
0.31418765 -0.68629813 1.8430002
0.32354891 -0.68512797 1.8430001
0.33174002 -0.68278766 1.8430001
0.035689846 -0.67342639 1.8430001
0.042125717 -0.67401147 1.8430001
0.067576669 -0.67488909 1.8430001
0.075036436 -0.67620552 1.8430002
0.082496196 -0.67752194 1.8430001
0.10566534 -0.67576671 1.8430001
0.11409049 -0.67576671 1.8430002
0.12462191 -0.67576671 1.8430002
0.1333981 -0.67752194 1.8430001
0.15797144 -0.67576671 1.8430001
0.16499239 -0.67576671 1.8430001
0.18430001 -0.67576671 1.8430002
0.19483146 -0.67576671 1.8430002
0.20360763 -0.67576671 1.8430001
0.2158943 -0.67225623 1.8430001
0.22759588 -0.67459655 1.8430001
0.23520193 -0.67401147 1.8430001
0.24222288 -0.67225623 1.8430001
0.27732763 -0.67576671 1.8430001
0.28610381 -0.67576671 1.8430002
0.29488003 -0.67576671 1.8430001
0.30365622 -0.67576671 1.8430002
0.31374884 -0.67620552 1.8430002
0.32413399 -0.67693686 1.8430001
0.33174002 -0.67927718 1.8430001
0.035689846 -0.6675756 1.8430001
0.043442145 -0.66479647 1.8430002
0.050901908 -0.66172481 1.8430001
0.067050099 -0.66593736 1.8430001
0.075036436 -0.66479647 1.8430002
0.083900385 -0.6645332 1.8430001
0.10706953 -0.66699052 1.8430001
0.11409049 -0.66523528 1.8430002
0.12462192 -0.66523528 1.8430002
0.13471453 -0.66479647 1.8430002
0.15884906 -0.6661129 1.8430001
0.16499239 -0.66523528 1.8430001
0.18640628 -0.66523528 1.8430001
0.19483146 -0.66523528 1.8430002
0.20586438 -0.66623825 1.8430002
0.21589431 -0.66523528 1.8430002
0.22642575 -0.66523528 1.8430002
0.23520194 -0.66523528 1.8430001
0.24187183 -0.66523528 1.8430001
0.28610381 -0.66874576 1.8430001
0.29488003 -0.66874576 1.8430001
0.3071667 -0.66874576 1.8430001
0.31418765 -0.66874576 1.8430001
0.32296383 -0.66874576 1.8430001
0.043880954 -0.65470386 1.8430002
0.068454288 -0.65470386 1.8430001
0.075475246 -0.65470386 1.8430002
0.083900385 -0.65540594 1.8430001
0.11409049 -0.65470386 1.8430002
0.12462192 -0.65470386 1.8430002
0.13515334 -0.65470386 1.8430002
0.14518328 -0.65370083 1.8430002
0.15738636 -0.6535337 1.8430001
0.16499239 -0.65470386 1.8430001
0.18430001 -0.65470386 1.8430001
0.19483145 -0.65645909 1.8430001
0.20624049 -0.65558147 1.8430001
0.21501668 -0.65733671 1.8430001
0.22642572 -0.65733671 1.8430001
0.23520193 -0.65821433 1.8430001
0.24222288 -0.65645909 1.8430001
0.045636192 -0.64592767 1.8430001
0.052306097 -0.64347035 1.8430001
0.066113971 -0.64300227 1.8430001
0.07430508 -0.64534259 1.8430001
0.086006671 -0.64768291 1.8430001
0.10426114 -0.64627874 1.8430001
0.11409049 -0.64461124 1.8430002
0.12418311 -0.64461124 1.8430002
0.13515334 -0.6451754 1.8430002
0.14612359 -0.64461124 1.8430002
0.1562162 -0.64417243 1.8430002
0.16499239 -0.64417243 1.8430001
0.056167621 -0.63539624 1.8430001
0.065821432 -0.63627386 1.8430001
0.071964763 -0.63715148 1.8430001
0.096538104 -0.63188577 1.8430001
0.10285696 -0.63223684 1.8430001
0.11409049 -0.63539624 1.8430001
0.13515334 -0.633641 1.8430001
0.14612359 -0.6332022 1.8430002
0.15577739 -0.63407981 1.8430002
0.16323715 -0.63539624 1.8430001
0.17201334 -0.63715148 1.8430001
0.096538104 -0.62486482 1.8430001
0.10121874 -0.6254499 1.8430001
0.13690858 -0.62486482 1.8430001
0.14568478 -0.62486482 1.8430001
0.1562162 -0.62662005 1.8430001
0.086006671 -0.6195991 1.8430001
0.096538104 -0.6195991 1.8430001
0.10004858 -0.61608863 1.8430001
0.022818096 -0.60906768 1.8430001
0.043880954 -0.5915153 1.8430001
0.096538104 -0.59678102 1.8430001
0.10004858 -0.59853625 1.8430001
0.34624633 -0.75284749 1.853
0.3547172 -0.75355339 1.853
0.36530572 -0.75355339 1.853
0.37589431 -0.75355339 1.853
0.43589622 -0.75708288 1.853
0.34648165 -0.74414134 1.853
0.35401127 -0.7450825 1.853
0.36530575 -0.74649435 1.853
0.42707241 -0.74649435 1.853
0.34589338 -0.73590571 1.853
0.35118765 -0.73943532 1.853
0.345011 -0.72619963 1.853
0.35471717 -0.72708195 1.853
0.49942765 -0.72884673 1.853
0.32648098 -0.7111991 1.853
0.33353999 -0.7111991 1.853
0.3429521 -0.71472859 1.853
0.37765908 -0.7111991 1.853
0.32648098 -0.70766956 1.853
0.33398119 -0.70458126 1.8529999
0.34059906 -0.70414001 1.853
0.092355877 -0.69119841 1.853
0.17400554 -0.69143379 1.853
0.21404043 -0.69254303 1.8529999
0.22311635 -0.69304723 1.8529999
0.24647844 -0.69119841 1.853
0.25589049 -0.69143379 1.853
0.2647143 -0.69002193 1.853
0.29612705 -0.69284558 1.853
0.30177429 -0.69178671 1.853
0.32648098 -0.69355148 1.853
0.33354002 -0.69355148 1.853
0.34059906 -0.69355148 1.853
0.086473338 -0.68296289 1.853
0.092826478 -0.68437469 1.853
0.10059144 -0.68472767 1.853
0.17471145 -0.68472767 1.853
0.2135362 -0.68472767 1.853
0.22412479 -0.68472767 1.853
0.23541927 -0.68508065 1.853
0.24530192 -0.68472767 1.853
0.25589049 -0.68472767 1.853
0.2647143 -0.68472767 1.853
0.27118507 -0.68413943 1.853
0.29824477 -0.68649244 1.853
0.30177429 -0.68649244 1.853
0.33706954 -0.68472767 1.853
0.34059906 -0.68472767 1.853
0.02647143 -0.67237431 1.853
0.030000955 -0.67413908 1.853
0.079414293 -0.67413908 1.853
0.085590959 -0.67590386 1.853
0.093532398 -0.67590386 1.853
0.10200324 -0.67590386 1.853
0.17471145 -0.67590386 1.853
0.18177049 -0.67237431 1.853
0.21265382 -0.67855102 1.853
0.22236001 -0.67943341 1.853
0.24671373 -0.67731565 1.853
0.25589049 -0.67590386 1.853
0.26471427 -0.67590386 1.853
0.27252966 -0.67539966 1.8529999
0.28236192 -0.67237431 1.853
0.29118574 -0.67237431 1.853
0.30353907 -0.67237431 1.853
0.31765717 -0.67413908 1.853
0.32295144 -0.67590386 1.853
0.3330988 -0.67634505 1.8529999
0.34059906 -0.67766863 1.853
0.034236383 -0.66602123 1.853
0.093532383 -0.66531527 1.853
0.10367977 -0.66487408 1.8529999
0.17471145 -0.66531521 1.853
0.1841235 -0.66472703 1.853
0.24794906 -0.66619772 1.853
0.25589049 -0.66707999 1.853
0.2647143 -0.66708004 1.853
0.27353811 -0.66884488 1.853
0.28236192 -0.66884482 1.853
0.32471621 -0.66708004 1.853
0.33118701 -0.66766834 1.853
0.037060004 -0.65649146 1.853
0.040589526 -0.6511972 1.853
0.086473338 -0.65472668 1.853
0.093973584 -0.65516788 1.8529999
0.10412096 -0.65649146 1.853
0.17471145 -0.65472668 1.853
0.18530001 -0.65428549 1.8529999
0.19588858 -0.65472668 1.853
0.21706572 -0.65649146 1.853
0.22412479 -0.65472668 1.8529999
0.23471335 -0.65472668 1.853
0.24412543 -0.65472668 1.853
0.044824954 -0.6434322 1.853
0.051178098 -0.64060861 1.853
0.078002483 -0.6434322 1.853
0.084708571 -0.6441381 1.853
0.092944138 -0.64472634 1.853
0.10361674 -0.64312971 1.8529999
0.11470953 -0.64237338 1.853
0.12618048 -0.641491 1.853
0.13588668 -0.64237338 1.853
0.14294572 -0.64237338 1.853
0.17382905 -0.64678526 1.853
0.047648575 -0.63707906 1.853
0.054707624 -0.63531435 1.853
0.06459029 -0.63496143 1.853
0.07412 -0.63707906 1.853
0.086473338 -0.6317848 1.853
0.091767631 -0.63354957 1.853
0.10765048 -0.6317848 1.853
0.11470954 -0.63254118 1.8529999
0.1252981 -0.63354957 1.853
0.13518079 -0.63425553 1.853
0.14471048 -0.63002002 1.853
0.024706669 -0.62296098 1.853
0.030000955 -0.62296098 1.853
0.067649215 -0.62413746 1.853
0.075884767 -0.62296098 1.853
0.084120311 -0.625314 1.853
0.091767624 -0.62472576 1.853
0.10412096 -0.62472576 1.853
0.11706255 -0.625314 1.853
0.1252981 -0.62472576 1.853
0.13235715 -0.62472576 1.853
0.025294922 -0.61707848 1.853
0.065296195 -0.61766672 1.853
0.086473338 -0.61766672 1.853
0.095650092 -0.61660784 1.853
0.10294446 -0.61590195 1.853
0.02647143 -0.60707814 1.853
0.035295241 -0.60354865 1.853
0.045295555 -0.60296035 1.853
0.093532383 -0.60178387 1.853
0.1023562 -0.60884291 1.853
0.037060004 -0.59472477 1.853
0.044824954 -0.59543067 1.853
0.051178098 -0.59648955 1.853
0.065296195 -0.58237147 1.853
0.065296195 -0.57707721 1.853
0.38679433 -0.7611686 1.863
0.39566574 -0.76116866 1.863
0.40631142 -0.76116866 1.863
0.41518289 -0.7611686 1.863
0.42405429 -0.76116866 1.863
0.43292576 -0.7611686 1.863
0.44534573 -0.76116866 1.863
0.45421717 -0.7611686 1.863
0.47373432 -0.7611686 1.863
0.48615432 -0.7611686 1.863
0.49147716 -0.7611686 1.863
0.36372858 -0.75052291 1.863
0.3743743 -0.75052291 1.863
0.38603392 -0.75356454 1.863
0.39566574 -0.75407147 1.863
0.40631151 -0.75407147 1.863
0.41518286 -0.75407153 1.863
0.42361078 -0.75451511 1.863
0.43514359 -0.75451505 1.863
0.44357148 -0.75407147 1.863
0.45599145 -0.75052291 1.863
0.47373432 -0.75229716 1.863
0.48615432 -0.75407147 1.863
0.49147716 -0.75407147 1.863
0.35663146 -0.74342579 1.863
0.36372861 -0.7452001 1.863
0.3743743 -0.7452001 1.863
0.38147146 -0.74520004 1.863
0.42476407 -0.74555492 1.8630002
0.43381286 -0.74608719 1.863
0.44179717 -0.74697435 1.863
0.35450229 -0.73703831 1.8630002
0.36372858 -0.7363286 1.863
0.37437433 -0.7363286 1.863
0.38235861 -0.73721576 1.863
0.39389145 -0.7363286 1.863
0.42464578 -0.73751146 1.863
0.48438004 -0.73987716 1.863
0.49680004 -0.7363286 1.863
0.50330573 -0.73869437 1.863
0.3495343 -0.72568291 1.863
0.35450229 -0.7249732 1.8630002
0.36372858 -0.72568285 1.863
0.37437433 -0.72568297 1.863
0.38324574 -0.72568291 1.863
0.49857435 -0.72568291 1.863
0.50465763 -0.72568285 1.863
0.34811488 -0.71432745 1.8630002
0.35485718 -0.71503729 1.863
0.36322165 -0.7160511 1.863
0.37366459 -0.7171663 1.8630002
0.38502002 -0.71681148 1.863
0.39389145 -0.71503717 1.863
0.49857432 -0.71681148 1.863
0.50389719 -0.71681148 1.863
0.34740517 -0.70510119 1.8630002
0.35485715 -0.70794004 1.863
0.34598574 -0.69374573 1.863
0.34598574 -0.6848743 1.863
0.026614288 -0.67245436 1.863
0.33888859 -0.67422867 1.863
0.34598571 -0.67600298 1.863
0.39566574 -0.67955148 1.863
0.026614288 -0.66890574 1.863
0.031582288 -0.66464746 1.8630002
0.3371143 -0.66890574 1.863
0.34243718 -0.66890574 1.863
0.03371143 -0.65530294 1.863
0.026614288 -0.64051718 1.863
0.03371143 -0.64051718 1.863
0.041695718 -0.64317858 1.863
0.079842865 -0.64051718 1.863
0.085165724 -0.64051718 1.863
0.095220007 -0.64643145 1.863
0.50389719 -0.64051718 1.863
0.02543143 -0.63460284 1.863
0.03371143 -0.6351943 1.863
0.044357143 -0.63554919 1.8630002
0.054293148 -0.63483942 1.8630002
0.065648578 -0.63342005 1.863
0.076294295 -0.6351943 1.863
0.083391435 -0.6351943 1.863
0.024840001 -0.62987149 1.863
0.034155004 -0.62632293 1.863
0.043647431 -0.62703264 1.8630002
0.055002861 -0.62632293 1.863
0.062987149 -0.62721002 1.863
0.076294288 -0.62632293 1.863
0.083391435 -0.6227743 1.863
0.090488575 -0.6227743 1.863
0.10823143 -0.62632293 1.863
0.11414573 -0.62514007 1.863
0.12420001 -0.6227743 1.863
0.026614288 -0.61922574 1.863
0.03371143 -0.61567724 1.863
0.044357147 -0.61567718 1.863
0.055002861 -0.61567724 1.863
0.065648578 -0.61508578 1.863
0.076294288 -0.61745143 1.863
0.084810868 -0.61496747 1.8630002
0.09332744 -0.61496747 1.8630002
0.10734428 -0.61567718 1.863
0.11532858 -0.61833858 1.863
0.12420001 -0.61922574 1.863
0.026614288 -0.60503149 1.863
0.032824289 -0.60414433 1.863
0.042582858 -0.60591865 1.863
0.055446431 -0.60547507 1.863
0.064229146 -0.60503149 1.8630002
0.079842865 -0.60503149 1.863
0.085165717 -0.60503149 1.863
0.09332744 -0.60503149 1.8630002
0.10290858 -0.60858005 1.863
0.03371143 -0.59616005 1.863
0.044357143 -0.59225655 1.8630002
0.05441143 -0.59438574 1.863
0.065648578 -0.59438574 1.863
0.077004001 -0.59509546 1.8630002
0.045776576 -0.58444977 1.8630002
0.052873719 -0.58444977 1.8630002
0.064465724 -0.58610576 1.863
0.044357147 -0.57486856 1.863
0.051454291 -0.57486856 1.863
0.037260003 -0.56422293 1.863
0.043470003 -0.56688434 1.863
0.053228576 -0.56954575 1.863
0.037260003 -0.55890006 1.863
0.45487145 -0.76168674 1.8730001
0.46557432 -0.76168674 1.8730001
0.47716907 -0.76347053 1.8730001
0.48341241 -0.76347053 1.8730001
0.4976829 -0.76168674 1.8730001
0.38708669 -0.75098383 1.8730001
0.39422193 -0.75098389 1.8730001
0.40492478 -0.75098389 1.8730001
0.41562763 -0.75098389 1.8730001
0.44773623 -0.75098383 1.8730001
0.45442551 -0.75455147 1.8730001
0.46512836 -0.75499743 1.8730001
0.4762772 -0.75526494 1.8730001
0.48341241 -0.75633526 1.8730001
0.49500719 -0.75544339 1.8730001
0.50125051 -0.75455147 1.8730001
0.38708669 -0.74384862 1.8730001
0.39422193 -0.74563241 1.8730001
0.40537074 -0.74429464 1.8730001
0.41562763 -0.74384868 1.8730003
0.42276287 -0.74384862 1.8730001
0.43560633 -0.74313509 1.8730001
0.44416863 -0.74384868 1.8730003
0.45754719 -0.74474055 1.8730001
0.46602029 -0.74429458 1.8730001
0.47627717 -0.74206483 1.8730001
0.48698002 -0.74028099 1.8730001
0.49197468 -0.74313509 1.8730001
0.38708669 -0.73671341 1.8730001
0.39422193 -0.73492956 1.8730001
0.40135717 -0.73671341 1.8730001
0.41681686 -0.73552418 1.8730001
0.42633048 -0.73457283 1.8730001
0.43524957 -0.73492956 1.8730001
0.44238478 -0.73671341 1.8730001
0.45843908 -0.73671341 1.8730001
0.46557432 -0.73582149 1.8730001
0.48698002 -0.73314577 1.8730001
0.49322337 -0.73492956 1.8730001
0.39422193 -0.72601044 1.8730003
0.40135717 -0.7260105 1.8730001
0.41562766 -0.72957814 1.8730001
0.42633048 -0.7295782 1.8730001
0.43465495 -0.72838897 1.8730001
0.44416857 -0.72601044 1.8730001
0.46557432 -0.72957814 1.8730001
0.48698002 -0.72957814 1.8730001
0.49411526 -0.72556448 1.8730001
0.36568096 -0.71352386 1.8730001
0.38589749 -0.71411848 1.8730001
0.4976829 -0.71887529 1.8730001
0.50481814 -0.71530765 1.8730001
0.35542405 -0.7041589 1.8730001
0.36211336 -0.70817244 1.8730001
0.38708669 -0.7046048 1.8730001
0.34784287 -0.69746959 1.8730001
0.35283753 -0.69461548 1.8730001
0.39778954 -0.69211817 1.8730001
0.40403289 -0.69122624 1.8730001
0.3531943 -0.6849829 1.8730001
0.36211336 -0.68319911 1.8730001
0.38708669 -0.6849829 1.8730001
0.39422193 -0.6849829 1.8730001
0.40403289 -0.68409103 1.8730001
0.35497811 -0.67963147 1.8730001
0.026757145 -0.6635772 1.8730001
0.026757145 -0.65465814 1.8730001
0.033178858 -0.65251762 1.8730001
0.026757145 -0.64752293 1.8730001
0.033892382 -0.64752293 1.8730001
0.50243974 -0.64633369 1.8730001
0.044595242 -0.63503623 1.8730001
0.045784447 -0.6273064 1.8730001
0.069568574 -0.61363053 1.8730001
0.074920006 -0.61363053 1.8730001
0.08027143 -0.61541432 1.8730001
0.090974294 -0.61363053 1.8730001
0.10881239 -0.61184669 1.8730001
0.11238001 -0.61898196 1.8730001
0.030324765 -0.60471147 1.8730001
0.066714481 -0.60471153 1.8730001
0.074563242 -0.605425 1.8730001
0.033382721 -0.59298933 1.8730001
0.04102762 -0.59044099 1.8730001
0.058865715 -0.59400862 1.8730001
0.066000953 -0.59614915 1.8730001
0.073136196 -0.5975762 1.8730001
0.033892382 -0.58508962 1.8730001
0.043406036 -0.58449501 1.8730001
0.057676513 -0.58449501 1.8730001
0.062433336 -0.58330578 1.8730001
0.033892382 -0.57617044 1.8730003
0.043881718 -0.57688397 1.8730001
0.057081908 -0.57795429 1.8730001
0.062433336 -0.57973814 1.8730001
0.032108571 -0.56546766 1.8730001
0.035676192 -0.55833244 1.8730001
0.46447337 -0.76575339 1.8830001
0.47344005 -0.76575339 1.8830001
0.45371336 -0.75140673 1.8830001
0.47523338 -0.75320005 1.8830001
0.48599339 -0.75320005 1.8830003
0.49675336 -0.75320005 1.8830001
0.50320935 -0.75355875 1.8830001
0.39274001 -0.74423337 1.8830001
0.40529335 -0.74244004 1.8830001
0.4124667 -0.74064672 1.8830001
0.45473811 -0.74372101 1.8830003
0.46447337 -0.74423337 1.8830001
0.4764289 -0.74184227 1.883
0.48539558 -0.74363559 1.8830003
0.40529335 -0.73526669 1.8830001
0.4124667 -0.73526669 1.8830001
0.42143336 -0.73526669 1.8830001
0.44474667 -0.73706007 1.8830001
0.45371339 -0.73526669 1.8830003
0.46268004 -0.73526669 1.8830001
0.47523341 -0.73526669 1.8830003
0.48420003 -0.73526669 1.8830001
0.49675336 -0.73526669 1.8830001
0.40565205 -0.72558272 1.8830001
0.4136622 -0.72749561 1.8830003
0.42502001 -0.72809339 1.8830003
0.43578005 -0.72585171 1.8830003
0.4441489 -0.7239089 1.883
0.45371336 -0.7263 1.8830001
0.46590799 -0.72773468 1.8830001
0.47523341 -0.72809339 1.8830003
0.48599336 -0.72732484 1.8830003
0.49496001 -0.72271335 1.8830001
0.36763334 -0.7119534 1.8830001
0.37525502 -0.71509171 1.8830003
0.38437113 -0.7143445 1.8830003
0.39632669 -0.71554005 1.8830003
0.40349999 -0.71554011 1.883
0.49496001 -0.7191267 1.8830001
0.50177467 -0.71554005 1.8830001
0.36464444 -0.70478004 1.8830003
0.37839335 -0.70836669 1.8830001
0.38628405 -0.70549738 1.8830001
0.39632666 -0.7047801 1.8830003
0.4049347 -0.7040627 1.8830001
0.41067335 -0.70119339 1.8830001
0.50213337 -0.70657337 1.8830001
0.35687336 -0.69222671 1.8830001
0.36302191 -0.69350767 1.8830003
0.38616446 -0.69402003 1.8830003
0.39453337 -0.69402003 1.8830003
0.4070867 -0.69402003 1.8830001
0.41336337 -0.69402003 1.8830001
0.47574577 -0.69299519 1.8830003
0.48548099 -0.69504482 1.8830003
0.49316669 -0.69581336 1.8830001
0.36285114 -0.68565112 1.883
0.38377336 -0.68684673 1.8830001
0.43219337 -0.68326002 1.8830001
0.47523341 -0.68684673 1.883
0.48420003 -0.68684673 1.8830001
0.026900001 -0.65456671 1.8830001
0.49675336 -0.65098006 1.8830001
0.50303 -0.65367001 1.8830001
0.026900001 -0.59000671 1.8830001
0.026900001 -0.58462667 1.8830001
0.026900001 -0.5792467 1.8830001
0.41668004 -0.7305429 1.8940001
0.45997146 -0.7305429 1.8940001
0.46538287 -0.7305429 1.8940001
0.40946478 -0.7233277 1.8940001
0.41547751 -0.72453022 1.8940001
0.42389527 -0.72513151 1.8940001
0.43381622 -0.72422957 1.8940001
0.44554099 -0.7233277 1.8940001
0.45636383 -0.72453022 1.8940001
0.46598414 -0.7257328 1.8940001
0.47512347 -0.72477072 1.8940001
0.48450327 -0.72477067 1.8940001
0.49244004 -0.72513151 1.8940001
0.3751924 -0.7125048 1.8940001
0.40946475 -0.71611243 1.8940001
0.41487622 -0.71611238 1.8940001
0.42269269 -0.71551114 1.8940001
0.43652195 -0.71791625 1.8940001
0.44626251 -0.71827704 1.8940001
0.45419925 -0.71683395 1.8940001
0.47512347 -0.71683395 1.8940001
0.48522478 -0.71611238 1.8940002
0.49604765 -0.71611243 1.8940002
0.50687051 -0.71972007 1.8940001
0.51047814 -0.71430862 1.8940001
0.36978099 -0.70348573 1.8940001
0.3751924 -0.7052896 1.8940001
0.38318071 -0.70528954 1.8940001
0.41577816 -0.70619148 1.8940001
0.4234443 -0.70483857 1.8940001
0.43231305 -0.7028845 1.8940001
0.47440195 -0.70528954 1.8940002
0.48522481 -0.7070933 1.8940001
0.49656302 -0.70632029 1.8940001
0.50542748 -0.70456803 1.8940001
0.51047814 -0.70889717 1.8940001
0.36978099 -0.69807434 1.8940001
0.3751924 -0.69446677 1.8940001
0.38150573 -0.69536859 1.8940001
0.41668004 -0.69266289 1.8940001
0.42434621 -0.69401574 1.8940001
0.43426716 -0.69401574 1.8940001
0.44313589 -0.6920616 1.8940001
0.45275623 -0.69085908 1.8940001
0.46718669 -0.69446671 1.8940001
0.47079432 -0.69446677 1.8940001
0.48883241 -0.69446671 1.8940001
0.49656302 -0.69343597 1.8940001
0.50542748 -0.69446671 1.8940001
0.51047814 -0.69085908 1.8940001
0.43616113 -0.68436539 1.8940001
0.44373718 -0.68544769 1.8940001
0.47491732 -0.68467462 1.8940001
0.48522478 -0.68364382 1.8940002
0.49604765 -0.68364394 1.8940002
0.50506669 -0.68364382 1.8940001
0.51047814 -0.68364382 1.8940001
0.476807 -0.67402357 1.8940001
0.48522481 -0.67462474 1.8940001
0.49785146 -0.6746248 1.8940001
0.50506669 -0.6746248 1.8940001
0.51047814 -0.6746248 1.8940001
0.47800955 -0.66921335 1.8940001
0.48477384 -0.66515481 1.8940001
0.49785149 -0.66560578 1.8940001
0.50506669 -0.66560578 1.8940001
0.51228195 -0.66560578 1.8940001
0.48522478 -0.65839052 1.8940001
0.49785146 -0.65568483 1.8940001
0.50326288 -0.65117526 1.8940001
0.42794669 -0.72352004 1.904
0.43338668 -0.72352004 1.904
0.46530133 -0.7249707 1.904
0.42976004 -0.71445334 1.904
0.43483734 -0.71554136 1.904
0.44426674 -0.71523052 1.9040002
0.4551467 -0.7140907 1.904
0.46820268 -0.71626675 1.904
0.47448894 -0.71868449 1.9039999
0.48053336 -0.7198934 1.904
0.50592005 -0.71626669 1.904
0.43701336 -0.7090134 1.904
0.44426671 -0.7053867 1.9040002
0.45514673 -0.70538676 1.9040002
0.46663117 -0.7065956 1.9040002
0.42794669 -0.69088006 1.904
0.44789335 -0.69813335 1.904
0.45514667 -0.69450665 1.9040002
0.46557334 -0.69450665 1.9040002
0.50592005 -0.69813335 1.904
0.45605338 -0.68634665 1.904
0.46648002 -0.68408006 1.9040002
0.47509336 -0.68181336 1.904
0.49504003 -0.68000007 1.904
0.49383116 -0.67395562 1.9039999
0.49413338 -0.66458672 1.904
0.49504003 -0.65824002 1.904
0.46628734 -0.72162074 1.9150001
0.46507147 -0.71675718 1.9150001
0.46507147 -0.70763814 1.9150001
0.42859527 -0.69122386 1.9150001
0.43406671 -0.69122386 1.9150001
