# .PCD v0.7 - Point Cloud Data file format
VERSION 0.7
FIELDS x y z
SIZE 4 4 4
TYPE F F F
COUNT 1 1 1
WIDTH 1464
HEIGHT 1
VIEWPOINT 0 0 0 1 0 0 0
POINTS 1464
DATA ascii
-0.92302334 -0.60510731 1.6478573
-0.91587937 -0.60509431 1.646
-0.90802008 -0.60795146 1.641
-0.92501056 -0.58892864 1.649
-0.9234401 -0.57165337 1.649
-0.89688414 -0.67384672 1.6570001
-0.88531148 -0.67305768 1.6570001
-0.87584299 -0.67384672 1.6569998
-0.86479622 -0.67384672 1.6569997
-0.85329872 -0.67294496 1.6569998
-0.8474372 -0.67384672 1.6570001
-0.81271911 -0.67226863 1.6570001
-0.80505413 -0.67339581 1.6569998
-0.79062575 -0.67069054 1.6570001
-0.78746957 -0.67384672 1.6570001
-0.88531154 -0.66437817 1.6569998
-0.87663198 -0.66674531 1.6570001
-0.86953056 -0.66753435 1.6570001
-0.85374957 -0.66122192 1.6570001
-0.8446756 -0.66477269 1.6569998
-0.83481252 -0.66437817 1.6569998
-0.82723749 -0.66374695 1.6569999
-0.8142972 -0.66437817 1.6569999
-0.80525899 -0.6646651 1.6569997
-0.79062575 -0.66437817 1.6570001
-0.78746957 -0.66753435 1.6570001
-0.89793622 -0.65175337 1.6570001
-0.88452244 -0.65727669 1.6570001
-0.87531692 -0.65385753 1.6569999
-0.86953056 -0.65806574 1.6570001
-0.85374957 -0.65438354 1.6569999
-0.84428102 -0.65806574 1.6570001
-0.83481252 -0.65490955 1.6569998
-0.82471257 -0.65490955 1.6569999
-0.81666434 -0.6541205 1.6570001
-0.80419743 -0.65490955 1.6569998
-0.79588604 -0.65385747 1.6570001
-0.89478004 -0.645441 1.6570001
-0.86411995 -0.64634275 1.6569998
-0.85374957 -0.64623004 1.6570001
-0.84349197 -0.64465195 1.6570001
-0.83481246 -0.64701909 1.6569999
-0.82534385 -0.6475451 1.6570001
-0.81377119 -0.6475451 1.6570001
-0.80415237 -0.64724451 1.6569998
-0.79693812 -0.64701909 1.6570001
-0.89320195 -0.63912863 1.6570001
-0.88688958 -0.63912863 1.6570001
-0.85217148 -0.63597244 1.6570001
-0.8474372 -0.63912863 1.6570001
-0.80009437 -0.63755053 1.6570001
-0.7853654 -0.63807654 1.6570001
-0.80009437 -0.62966007 1.6570001
-0.9152953 -0.6107229 1.6570001
-0.92949814 -0.60125434 1.6570001
-0.9168734 -0.60756671 1.6570001
-0.92949814 -0.58705145 1.6570001
-0.9255529 -0.57442671 1.6570001
-0.92634195 -0.56969243 1.6570001
-0.86321813 -0.55391145 1.6570001
-0.88800007 -0.68027145 1.6650001
-0.85152864 -0.68027145 1.6650001
-0.84518576 -0.68027145 1.6650001
-0.83567148 -0.68027145 1.6650001
-0.82457149 -0.68027145 1.6650001
-0.81981432 -0.68027145 1.6650001
-0.78492862 -0.68027145 1.6650001
-0.90438581 -0.67498571 1.6650001
-0.88641435 -0.67710006 1.6650001
-0.85152864 -0.67392862 1.6650001
-0.84518576 -0.6755144 1.6650001
-0.83646435 -0.6763072 1.6650001
-0.82615715 -0.67392868 1.6650001
-0.81664294 -0.67498571 1.6650001
-0.78556287 -0.6758315 1.6650002
-0.74370003 -0.67392862 1.6650001
-0.86104292 -0.6612429 1.6650001
-0.85470009 -0.6612429 1.6650001
-0.84518576 -0.66282862 1.6650001
-0.83884293 -0.66758573 1.6650001
-0.82457149 -0.66600001 1.6650001
-0.79127151 -0.66758573 1.6650001
-0.74370003 -0.6612429 1.6650001
-0.89275718 -0.65807146 1.6650001
-0.88588578 -0.65384293 1.6650001
-0.87690008 -0.65172863 1.6650001
-0.82404298 -0.65384293 1.6650001
-0.81030005 -0.65490001 1.6650001
-0.74370003 -0.65490007 1.6650001
-0.88165718 -0.64855719 1.6650001
-0.87214291 -0.64538574 1.6650001
-0.86315721 -0.64432859 1.6650001
-0.85787147 -0.64380002 1.6650001
-0.84518576 -0.64538574 1.6650001
-0.83884293 -0.64538574 1.6650001
-0.82615721 -0.64855719 1.6650001
-0.8142643 -0.64498931 1.6650001
-0.80712861 -0.6422143 1.6650001
-0.7833429 -0.6422143 1.6650001
-0.77541429 -0.6422143 1.6650001
-0.74370003 -0.64855719 1.6650001
-0.87055719 -0.63904291 1.6650001
-0.86315721 -0.63692862 1.6650001
-0.85549295 -0.63745719 1.6650001
-0.82298577 -0.63270003 1.6650001
-0.81030005 -0.63904291 1.6650001
-0.80712861 -0.63587147 1.6650001
-0.78447562 -0.63496536 1.6650001
-0.77541429 -0.63798577 1.6650001
-0.76695722 -0.63798577 1.6650001
-0.8642143 -0.62952864 1.6650001
-0.82457149 -0.6263572 1.6650001
-0.80554295 -0.62952864 1.6650001
-0.78175718 -0.62952864 1.6650001
-0.81664294 -0.61050004 1.6650001
-0.93240005 -0.60257149 1.6650001
-0.92130005 -0.60732859 1.6650001
-0.81585008 -0.60574287 1.6650001
-0.93398577 -0.59781432 1.6650001
-0.90227151 -0.59464288 1.6650001
-0.89592862 -0.59464288 1.6650001
-0.8134715 -0.59781432 1.6650001
-0.93240005 -0.58354288 1.6650001
-0.92764294 -0.58195716 1.6650001
-0.89592862 -0.58512861 1.6650001
-0.9244715 -0.57720006 1.6650001
-0.93160719 -0.56689292 1.6650001
-0.86104292 -0.56292862 1.6650001
-0.91812861 -0.47730002 1.6650001
-0.83331341 -0.68354005 1.6730001
-0.82056671 -0.68354005 1.6730001
-0.7823267 -0.68194675 1.6730001
-0.77595335 -0.68194675 1.6730002
-0.76533121 -0.68354005 1.673
-0.75364667 -0.68354005 1.673
-0.74727339 -0.68194675 1.6730001
-0.71540672 -0.68194675 1.6730001
-0.70584667 -0.68354005 1.6730001
-0.64530003 -0.68354005 1.6730001
-0.90660673 -0.67398006 1.6730001
-0.83650005 -0.6771667 1.6730001
-0.79188675 -0.67238671 1.6730001
-0.78604454 -0.67398006 1.6730002
-0.77549809 -0.67489052 1.6730002
-0.76411724 -0.67443526 1.6730002
-0.75364679 -0.67398006 1.6730002
-0.74472409 -0.672068 1.6730001
-0.73612005 -0.67079335 1.6730001
-0.72815341 -0.67398006 1.6730001
-0.71646899 -0.67610449 1.673
-0.70425338 -0.67557335 1.6730001
-0.92572671 -0.66123337 1.6730001
-0.90342003 -0.66123337 1.6730001
-0.79666674 -0.66362333 1.6730001
-0.77436006 -0.66123337 1.6730001
-0.76193208 -0.66314536 1.6730001
-0.75364673 -0.66442007 1.6730002
-0.74488342 -0.66521668 1.6730001
-0.71540672 -0.66442007 1.673
-0.70478445 -0.66335779 1.673
-0.69947338 -0.66442007 1.6730001
-0.92572671 -0.65645337 1.6730001
-0.89465678 -0.65326667 1.6730001
-0.88111341 -0.65167338 1.6730001
-0.82694006 -0.65167338 1.6730001
-0.80144674 -0.65486002 1.6730001
-0.79826003 -0.65167338 1.6730001
-0.77531606 -0.65422273 1.6730001
-0.76193208 -0.65613472 1.6730001
-0.75364673 -0.65486002 1.6730002
-0.74408674 -0.65645337 1.6730001
-0.71700007 -0.65406334 1.6730001
-0.70584673 -0.65486002 1.6730001
-0.88302547 -0.64657468 1.6730001
-0.87792671 -0.64370668 1.6730001
-0.85243338 -0.64530003 1.6730001
-0.84765339 -0.64530003 1.6730001
-0.83331335 -0.64593732 1.6730001
-0.82466382 -0.64484471 1.6730002
-0.81419337 -0.64530003 1.6730001
-0.80782008 -0.64848673 1.6730001
-0.79507339 -0.64530003 1.6730001
-0.77515674 -0.64769006 1.6730001
-0.76411718 -0.64393431 1.6730002
-0.75364679 -0.64529997 1.6730002
-0.74727339 -0.64211339 1.6730001
-0.73407143 -0.64484483 1.6730002
-0.72496676 -0.64338803 1.6730001
-0.71779668 -0.64530003 1.6730001
-0.70584673 -0.64848673 1.6730001
-0.87314671 -0.63733339 1.6730001
-0.86836672 -0.63574004 1.6730001
-0.85562003 -0.63892668 1.6730001
-0.83140135 -0.63637739 1.6730001
-0.82322222 -0.63574004 1.6730002
-0.81510383 -0.63619524 1.6730002
-0.80463338 -0.63892668 1.6730001
-0.79507339 -0.63892668 1.6730001
-0.7823267 -0.63414669 1.6730001
-0.77595335 -0.63613844 1.6730002
-0.76766807 -0.63510269 1.6730001
-0.7326147 -0.63637739 1.6730001
-0.72496676 -0.63574004 1.6730002
-0.71859336 -0.63892668 1.6730001
-0.85455781 -0.62405556 1.673
-0.8460601 -0.62618005 1.6730002
-0.83172005 -0.6277734 1.6730001
-0.82322222 -0.62618011 1.6730002
-0.81419331 -0.62618011 1.6730002
-0.76958007 -0.6293667 1.6730001
-0.73134005 -0.6293667 1.6730001
-0.72496676 -0.62857008 1.6730001
-0.92254007 -0.61024672 1.6730001
-0.91935337 -0.61343336 1.6730001
-0.85402662 -0.61502671 1.6730002
-0.84605998 -0.61438936 1.6730001
-0.83968669 -0.61343336 1.673
-0.82534671 -0.61343336 1.6730001
-0.81339669 -0.61582339 1.6730001
-0.93422455 -0.60387343 1.673
-0.92481625 -0.60432863 1.6730002
-0.91935337 -0.60706002 1.6730001
-0.90766889 -0.60174894 1.673
-0.88111341 -0.60068673 1.6730001
-0.87792671 -0.60068673 1.6730001
-0.85243338 -0.60546672 1.6730001
-0.8460601 -0.60387331 1.6730002
-0.83437562 -0.60068673 1.673
-0.82284296 -0.60341817 1.6730002
-0.81578672 -0.60546672 1.6730001
-0.9352867 -0.59431338 1.673
-0.91298008 -0.59750003 1.6730001
-0.90581006 -0.59391499 1.6730002
-0.84287339 -0.59750003 1.6730001
-0.83968675 -0.59431338 1.6730001
-0.82056671 -0.59750003 1.6730001
-0.81738007 -0.59750003 1.6730001
-0.79507339 -0.59590673 1.6730001
-0.93210006 -0.58794004 1.6730001
-0.92891341 -0.58475339 1.6730001
-0.91935337 -0.58475339 1.6730001
-0.90235788 -0.58475339 1.673
-0.89704674 -0.58156669 1.6730001
-0.83267605 -0.58347875 1.6730001
-0.79507339 -0.58634675 1.6730001
-0.93210006 -0.5720067 1.6730001
-0.92891341 -0.57519335 1.6730001
-0.93656141 -0.56563342 1.6730001
-0.8301267 -0.56882006 1.6730001
-0.82694006 -0.56882006 1.6730001
-0.93767673 -0.55687004 1.6730001
-0.92572671 -0.55607337 1.6730001
-0.83968675 -0.55926001 1.6730001
-0.9384734 -0.54438895 1.673
-0.92254007 -0.48278004 1.6730001
-0.84370196 -0.68040478 1.6810001
-0.77165914 -0.68360668 1.6810001
-0.76493514 -0.68360674 1.6810001
-0.75564957 -0.68360668 1.6810001
-0.7433756 -0.68360668 1.6810001
-0.73483711 -0.68360668 1.681
-0.72568882 -0.68452156 1.681
-0.71498537 -0.68296635 1.6810001
-0.70556259 -0.68360668 1.681
-0.6724 -0.68360668 1.6810001
-0.66439527 -0.68360668 1.681
-0.65478957 -0.68360668 1.681
-0.64478362 -0.68320644 1.681
-0.63397717 -0.68680865 1.6810001
-0.79407239 -0.67079908 1.6810001
-0.78542727 -0.67336059 1.6810001
-0.7750898 -0.6726287 1.681
-0.76685625 -0.67400098 1.6810001
-0.74284196 -0.67400098 1.6810001
-0.73563766 -0.67400098 1.6810001
-0.72523147 -0.67400092 1.681
-0.71562576 -0.67400098 1.681
-0.70647746 -0.67400092 1.681
-0.69321245 -0.67613554 1.6810001
-0.68360668 -0.67560196 1.6810001
-0.67445838 -0.67491585 1.681
-0.66546255 -0.67506832 1.6810001
-0.65478957 -0.67720288 1.6810001
-0.64518386 -0.67720288 1.6810001
-0.92054766 -0.66119337 1.6810001
-0.80367815 -0.66119337 1.6810001
-0.79674071 -0.66652983 1.6810001
-0.78286576 -0.66439527 1.6810001
-0.77432734 -0.66599625 1.6810001
-0.76685625 -0.66759717 1.6810001
-0.74284196 -0.66439527 1.6810001
-0.72416419 -0.66439527 1.6810001
-0.71516836 -0.66348046 1.681
-0.70441914 -0.66279435 1.6810001
-0.69534707 -0.66332799 1.681
-0.68424708 -0.66311455 1.6810001
-0.92374963 -0.65799147 1.6810001
-0.89653337 -0.65158767 1.6810001
-0.80207717 -0.65799147 1.6810001
-0.79647386 -0.65398908 1.6810001
-0.78286576 -0.65799147 1.6810001
-0.77326006 -0.65559006 1.681
-0.76605582 -0.65398908 1.6810001
-0.7439093 -0.65532321 1.6810001
-0.73483711 -0.65518981 1.681
-0.72683239 -0.65478963 1.6810001
-0.71562576 -0.65478957 1.681
-0.70510525 -0.65524703 1.681
-0.69601417 -0.65599024 1.681
-0.89279789 -0.64625114 1.6810001
-0.88852865 -0.64678478 1.6810001
-0.85330772 -0.64326274 1.6810001
-0.84370196 -0.64598429 1.6810001
-0.83569717 -0.64838576 1.6810001
-0.82769245 -0.64198196 1.6810001
-0.79247147 -0.64518386 1.6810001
-0.76525533 -0.64198196 1.6810001
-0.75725055 -0.64838576 1.6810001
-0.74124098 -0.64838576 1.6810001
-0.72843337 -0.64838576 1.6810001
-0.71562576 -0.6457175 1.6810001
-0.70762104 -0.64678478 1.6810001
-0.69321245 -0.64198196 1.6810001
-0.8511731 -0.63771278 1.6810001
-0.84370196 -0.63237625 1.6810001
-0.83729815 -0.63557816 1.6810001
-0.82769245 -0.63557816 1.6810001
-0.78606766 -0.63237625 1.6810001
-0.77646196 -0.63317674 1.6810001
-0.76557553 -0.63557816 1.6810001
-0.73803908 -0.63397717 1.6810001
-0.72202951 -0.63557816 1.6810001
-0.71562576 -0.63237625 1.6810001
-0.82769245 -0.62917435 1.6810001
-0.81808674 -0.62597245 1.6810001
-0.77326012 -0.62837386 1.6810001
-0.76685625 -0.62917435 1.6810001
-0.73403668 -0.62757337 1.6810001
-0.72683239 -0.6251719 1.6810001
-0.92246884 -0.61636674 1.6810001
-0.91254294 -0.61316478 1.6810001
-0.86451435 -0.6147657 1.6810001
-0.85330766 -0.61956859 1.6810001
-0.84050006 -0.61316478 1.6810001
-0.83569717 -0.61316478 1.6810001
-0.81328392 -0.61316478 1.6810001
-0.80607951 -0.61396527 1.6810001
-0.79887527 -0.61316478 1.6810001
-0.77646196 -0.61316478 1.6810001
-0.73163527 -0.61956859 1.6810001
-0.72651219 -0.61636668 1.6810001
-0.71322429 -0.61556619 1.6810001
-0.93427008 -0.60310167 1.681
-0.92254883 -0.60395932 1.681
-0.91478425 -0.60740137 1.6810001
-0.90774006 -0.60516 1.6810001
-0.89493245 -0.60355908 1.6810001
-0.88852865 -0.60355908 1.6810001
-0.87518734 -0.60409278 1.6810001
-0.86611527 -0.60729462 1.6810001
-0.85505414 -0.60414124 1.6809999
-0.84050006 -0.60516 1.6810001
-0.83601743 -0.60483986 1.6810001
-0.82769245 -0.60035717 1.6810001
-0.81541848 -0.60676098 1.6810001
-0.8052792 -0.60516 1.6809999
-0.79538226 -0.6055966 1.6809999
-0.786708 -0.6048398 1.681
-0.77806288 -0.60516006 1.6810001
-0.9339956 -0.59331298 1.6810001
-0.92374951 -0.59395331 1.681
-0.91654527 -0.59315288 1.6810001
-0.90613914 -0.59395337 1.6810001
-0.89173055 -0.59715527 1.6810001
-0.8853268 -0.59715527 1.6810001
-0.8750807 -0.59587455 1.6810001
-0.86931717 -0.59395337 1.6810001
-0.85426825 -0.59459382 1.681
-0.8442356 -0.59448701 1.6810001
-0.83409625 -0.59395337 1.6810001
-0.82288957 -0.59715527 1.6810001
-0.80207711 -0.59395337 1.6810001
-0.79567337 -0.59608799 1.6810001
-0.78766865 -0.59395337 1.6810001
-0.77966386 -0.59395337 1.6810001
-0.93015337 -0.58434767 1.6810001
-0.92455006 -0.58514816 1.6810001
-0.91414386 -0.58626878 1.6810001
-0.90581894 -0.58306688 1.6810001
-0.85010576 -0.58754957 1.6810001
-0.84316826 -0.58434767 1.6810001
-0.83409625 -0.58114576 1.6810001
-0.82128865 -0.58754957 1.6810001
-0.8036781 -0.58434767 1.6810001
-0.79887527 -0.58274674 1.6810001
-0.77806294 -0.58114576 1.6810001
-0.93335527 -0.57314098 1.6810001
-0.90293717 -0.57794386 1.6810001
-0.84290147 -0.57554245 1.6810001
-0.83489674 -0.57474196 1.6810001
-0.82769245 -0.57154006 1.6810001
-0.80399829 -0.57538235 1.6810001
-0.79887527 -0.57474196 1.6810001
-0.78446674 -0.57794386 1.6810001
-0.77806294 -0.57794386 1.6810001
-0.93463612 -0.56449592 1.6810001
-0.92695147 -0.56513625 1.6810001
-0.86931717 -0.56193435 1.6810001
-0.84050006 -0.56193435 1.6810001
-0.83302903 -0.56460261 1.6810001
-0.82769245 -0.56833816 1.6810001
-0.93477833 -0.55588627 1.681
-0.92695147 -0.55553049 1.6810001
-0.87892294 -0.55232859 1.6810001
-0.84370202 -0.55553049 1.6810001
-0.83409631 -0.55553049 1.681
-0.8264116 -0.5548901 1.6810001
-0.94296104 -0.54912668 1.6810001
-0.93975914 -0.54592478 1.6810001
-0.88404596 -0.54592478 1.6810001
-0.87892294 -0.54752576 1.6810001
-0.84316832 -0.5448575 1.6810001
-0.83601743 -0.54592478 1.6810001
-0.80634642 -0.54485744 1.6810001
-0.94296104 -0.53952098 1.6810001
-0.88212484 -0.53952098 1.6810001
-0.84050006 -0.53631908 1.6810001
-0.83729815 -0.53631908 1.6810001
-0.89813435 -0.51070386 1.6810001
-0.78606766 -0.50430006 1.6810001
-0.93122071 -0.48402131 1.6810001
-0.92535055 -0.48668957 1.6810001
-0.70124263 -0.69049716 1.6926666
-0.69370478 -0.69048578 1.6900001
-0.68404764 -0.69048578 1.6900001
-0.63317144 -0.69132006 1.6960001
-0.62354767 -0.69131148 1.694
-0.61613142 -0.69213718 1.6980001
-0.75164765 -0.68565714 1.6900001
-0.7387715 -0.68082863 1.6900001
-0.72911435 -0.68404764 1.6900001
-0.70197189 -0.68368834 1.6935558
-0.69306099 -0.68469155 1.6900002
-0.6840477 -0.6856572 1.6900002
-0.64398515 -0.68469459 1.6964
-0.63562828 -0.68404859 1.6946667
-0.62505203 -0.68404871 1.6950911
-0.61289716 -0.68728578 1.6980001
-0.60966289 -0.68405145 1.6980001
-0.80048579 -0.67434859 1.6980001
-0.7949264 -0.67328447 1.6953334
-0.74199051 -0.67117149 1.6900001
-0.7361328 -0.67331052 1.6913334
-0.70344383 -0.67597532 1.6966667
-0.69373721 -0.67437339 1.6940001
-0.68469155 -0.67245907 1.6900002
-0.67503434 -0.67245907 1.6900002
-0.66433102 -0.6739881 1.6900003
-0.65507621 -0.67439055 1.6900003
-0.64598978 -0.67437381 1.6932001
-0.63553721 -0.67596579 1.6980001
-0.62583435 -0.67475283 1.6980001
-0.61613148 -0.67596579 1.6980001
-0.60966289 -0.67596579 1.6980001
-0.80315244 -0.66473335 1.6900001
-0.79553258 -0.66471887 1.6916002
-0.74199051 -0.66634285 1.6900001
-0.73624885 -0.66665035 1.6916001
-0.72911435 -0.66795242 1.6900001
-0.69048578 -0.66151434 1.6900001
-0.68266642 -0.66426319 1.691143
-0.67437667 -0.66411346 1.6929092
-0.66471142 -0.66390282 1.6920003
-0.65503991 -0.66470808 1.6921821
-0.64792883 -0.66663277 1.6931999
-0.79403186 -0.65722227 1.6900002
-0.75325716 -0.6534667 1.6900001
-0.74842864 -0.6518572 1.6900001
-0.70255721 -0.65266198 1.6900001
-0.69330239 -0.65467381 1.6900003
-0.68404627 -0.65590841 1.6929092
-0.67481452 -0.65680796 1.6968572
-0.6651848 -0.65440387 1.6980001
-0.6517086 -0.6517086 1.6980001
-0.64847434 -0.6517086 1.6980001
-0.9136858 -0.64200574 1.6980001
-0.90074861 -0.64847434 1.6980001
-0.89408427 -0.64592272 1.6964
-0.88684767 -0.64541906 1.6900001
-0.86193722 -0.64200574 1.6980001
-0.85203528 -0.64608955 1.696
-0.80048579 -0.64200574 1.6980001
-0.79027623 -0.64863813 1.6900001
-0.76706481 -0.64416194 1.6980001
-0.7555753 -0.645289 1.6957144
-0.747141 -0.64477527 1.6900002
-0.72267622 -0.64220005 1.6900001
-0.7162382 -0.6438095 1.6900002
-0.70453256 -0.6451264 1.6900004
-0.69330245 -0.64541906 1.6900003
-0.68404841 -0.64479852 1.6914548
-0.67408884 -0.64479852 1.6914548
-0.66547239 -0.64528489 1.6960001
-0.65364921 -0.64394629 1.6980002
-0.64739627 -0.64524007 1.6980001
-0.63769341 -0.64524001 1.6980001
-0.9255448 -0.63230288 1.6980001
-0.91355008 -0.63475668 1.697
-0.90616196 -0.63576198 1.6900001
-0.85223436 -0.63230288 1.6980001
-0.8446877 -0.63338101 1.6980001
-0.83606291 -0.63230288 1.6980001
-0.82246673 -0.63415241 1.6900001
-0.81354803 -0.63461405 1.6926666
-0.80404454 -0.63651866 1.6943637
-0.7934953 -0.63495719 1.6900001
-0.78544772 -0.63254291 1.6900001
-0.76794291 -0.63725913 1.694
-0.7532652 -0.63553715 1.6980002
-0.74601436 -0.6365667 1.6900001
-0.7251448 -0.63409245 1.692
-0.71623808 -0.63576192 1.6900003
-0.70336193 -0.63576198 1.6900003
-0.69416463 -0.63668162 1.6900003
-0.68726671 -0.63737148 1.6900001
-0.67241645 -0.63557911 1.6964
-0.66464579 -0.63553715 1.6980001
-0.65534723 -0.63594145 1.6980001
-0.6477105 -0.63639808 1.696
-0.93309146 -0.62906861 1.6980001
-0.92500579 -0.62906861 1.6980001
-0.91432202 -0.62535584 1.6931999
-0.90616196 -0.62610483 1.6900001
-0.84539056 -0.62436008 1.694
-0.83591586 -0.6265384 1.6964
-0.82765371 -0.62583435 1.6980002
-0.81422704 -0.62616402 1.6955386
-0.80376393 -0.62721241 1.6930001
-0.79549122 -0.62598187 1.6936364
-0.78383821 -0.62610483 1.6900003
-0.77320027 -0.62568879 1.6917779
-0.76814288 -0.62745148 1.6980001
-0.75164765 -0.62610483 1.6900001
-0.74480724 -0.62570244 1.6900003
-0.73796678 -0.62690961 1.6900001
-0.72482228 -0.62610483 1.6900002
-0.71623808 -0.62650716 1.6900003
-0.70417678 -0.62567049 1.6910002
-0.66464579 -0.62777489 1.6980002
-0.65494293 -0.62906861 1.6980001
-0.92225718 -0.61483812 1.6900001
-0.916641 -0.61863244 1.6960001
-0.90074855 -0.61613148 1.6980001
-0.8940239 -0.61540192 1.696
-0.88434005 -0.61702669 1.6960001
-0.87810862 -0.61936575 1.6980001
-0.84564382 -0.61451626 1.6900002
-0.83695245 -0.6140334 1.6900001
-0.81602865 -0.61322862 1.6900001
-0.80315244 -0.6196667 1.6900001
-0.79607058 -0.61709154 1.6900002
-0.78475791 -0.61644763 1.6900003
-0.77418095 -0.61483818 1.6900004
-0.76590347 -0.61414832 1.6900003
-0.75342667 -0.61306286 1.694
-0.74554318 -0.61541176 1.6928574
-0.73519468 -0.61537462 1.6900003
-0.72559512 -0.61448467 1.6908003
-0.71588039 -0.61394399 1.6900003
-0.70661575 -0.61428142 1.6929092
-0.68359101 -0.6147905 1.6968572
-0.9367429 -0.60035241 1.6900001
-0.91045147 -0.60966289 1.6980001
-0.90371537 -0.6065191 1.6960001
-0.89589721 -0.60642862 1.6980001
-0.88523817 -0.60357147 1.6900001
-0.87332761 -0.60357141 1.6900002
-0.86753339 -0.60357147 1.6900001
-0.84500003 -0.60357147 1.6900001
-0.83534288 -0.60115719 1.6900001
-0.82398415 -0.60332006 1.6953335
-0.81834328 -0.60463583 1.6948
-0.80959052 -0.60035241 1.6900001
-0.78383815 -0.60357147 1.6900001
-0.77426553 -0.60381788 1.6916002
-0.76725906 -0.60535508 1.6932001
-0.74509144 -0.60589033 1.6956002
-0.73374617 -0.60351753 1.691143
-0.72634435 -0.60483623 1.6935556
-0.71597719 -0.60470974 1.6932001
-0.70466715 -0.60579592 1.6955386
-0.9351334 -0.5971334 1.6900001
-0.92985719 -0.59349149 1.6980001
-0.90236574 -0.59672576 1.6980001
-0.89296889 -0.593211 1.6921821
-0.88415152 -0.59345722 1.6910002
-0.87345505 -0.59238625 1.6917779
-0.86489344 -0.5921734 1.6924002
-0.85787624 -0.59069526 1.6900001
-0.84419531 -0.59471905 1.6900001
-0.83602399 -0.593723 1.6935556
-0.82568568 -0.59431672 1.6900003
-0.81774205 -0.59516728 1.6935556
-0.80959052 -0.59552383 1.6900001
-0.79671431 -0.59310961 1.6900003
-0.78328657 -0.59382975 1.6916002
-0.77615434 -0.59733278 1.6966667
-0.76814288 -0.59996003 1.6980001
-0.75197148 -0.59672576 1.6980001
-0.74688905 -0.59580171 1.6980001
-0.73741716 -0.59510863 1.6980001
-0.71396863 -0.5975343 1.6980001
-0.70406395 -0.59409291 1.6948001
-0.69698864 -0.5983429 1.6980001
-0.93367589 -0.58148837 1.6932001
-0.92442483 -0.58241338 1.694
-0.9142096 -0.58264768 1.6900001
-0.90452194 -0.58432764 1.6980001
-0.89668477 -0.58466828 1.6940002
-0.88405627 -0.58424962 1.697
-0.87484044 -0.58421177 1.6953335
-0.86476719 -0.58419287 1.6980001
-0.85304767 -0.58425719 1.6900002
-0.8425315 -0.58378863 1.6980001
-0.83498478 -0.5843277 1.6980001
-0.82649469 -0.58573657 1.6953335
-0.81610715 -0.58460289 1.6910002
-0.79554373 -0.58454984 1.6900004
-0.78393036 -0.58544803 1.6916001
-0.77579051 -0.58264768 1.6900001
-0.74550289 -0.58540577 1.6980001
-0.73580003 -0.5848667 1.6980001
-0.70669144 -0.5870229 1.6980001
-0.66141146 -0.58055431 1.6980001
-0.6581772 -0.58055431 1.6980001
-0.93479306 -0.5734387 1.6913334
-0.92642927 -0.57578862 1.6966667
-0.91410178 -0.57320648 1.6916001
-0.90560657 -0.57407516 1.6945715
-0.89629745 -0.57423055 1.6957142
-0.88457721 -0.57462478 1.6980001
-0.87487441 -0.57537949 1.6980002
-0.86418021 -0.5739696 1.6948
-0.85506672 -0.57433909 1.6940002
-0.84446353 -0.57406354 1.6900002
-0.83247626 -0.57433528 1.694
-0.82563692 -0.57294565 1.6929092
-0.81651145 -0.57493615 1.6910002
-0.80048579 -0.57085145 1.6980001
-0.79389763 -0.57500243 1.6900003
-0.7833367 -0.57480067 1.6914548
-0.77293992 -0.5747292 1.6935556
-0.76410007 -0.57327718 1.6980001
-0.75844008 -0.57085145 1.6980001
-0.73256576 -0.57570291 1.6980001
-0.72933149 -0.57085145 1.6980001
-0.66141146 -0.57732004 1.6980001
-0.6581772 -0.57732004 1.6980001
-0.93491721 -0.56546766 1.694
-0.92946988 -0.56457466 1.6953334
-0.91341436 -0.56775337 1.696
-0.90458274 -0.56444341 1.6971111
-0.89477807 -0.56462508 1.6945716
-0.8827734 -0.56311959 1.6930001
-0.87527812 -0.56516278 1.6934286
-0.86570853 -0.56530821 1.6940002
-0.85353184 -0.56289637 1.6916001
-0.84500009 -0.5665524 1.6900001
-0.83426994 -0.5670889 1.6900001
-0.82643461 -0.56470937 1.6934286
-0.81602865 -0.5649429 1.6900001
-0.80048579 -0.56761718 1.6980001
-0.7934292 -0.56426907 1.6944444
-0.78368765 -0.56426382 1.6920003
-0.77445215 -0.56517184 1.6950909
-0.76537073 -0.56530702 1.6980001
-0.75435477 -0.56445479 1.697
-0.74712002 -0.56114858 1.6980001
-0.73256576 -0.56600004 1.6980001
-0.72702128 -0.56392086 1.6980001
-0.71477723 -0.56438297 1.6980001
-0.70992583 -0.56438285 1.6980001
-0.94318104 -0.55367625 1.6900001
-0.93496352 -0.55311203 1.6931999
-0.90182668 -0.55468005 1.6980001
-0.89304578 -0.55569035 1.6931999
-0.88317573 -0.55465239 1.6930001
-0.87603754 -0.5555194 1.6939999
-0.86782414 -0.55723494 1.6926666
-0.85336953 -0.5546419 1.6900002
-0.84500003 -0.55528575 1.6900001
-0.83373338 -0.55206668 1.6900001
-0.82476604 -0.5548259 1.6900003
-0.81956959 -0.55337334 1.694
-0.80372006 -0.55144572 1.6980001
-0.79494125 -0.55514205 1.6980001
-0.78394479 -0.55506247 1.6972001
-0.77501202 -0.55522645 1.6968572
-0.76336414 -0.55586368 1.6945714
-0.75509101 -0.55595666 1.6953334
-0.74658108 -0.55360192 1.6980001
-0.73580009 -0.55144572 1.6980001
-0.72739089 -0.55403316 1.6980002
-0.71510065 -0.55338633 1.6980002
-0.70992577 -0.55629718 1.6980001
-0.94513571 -0.54510593 1.6964
-0.93815148 -0.54691243 1.694
-0.90074861 -0.54336005 1.6980001
-0.89388984 -0.54461366 1.691143
-0.88248825 -0.54530793 1.6939999
-0.87810862 -0.54336005 1.6980001
-0.85336953 -0.54562861 1.6900002
-0.8482191 -0.54240954 1.6900001
-0.83494049 -0.54562855 1.6900003
-0.82623369 -0.54589492 1.6933335
-0.81673884 -0.5449056 1.6944444
-0.80048579 -0.54174292 1.6980001
-0.7826972 -0.54821146 1.6980001
-0.77517223 -0.54769182 1.6964
-0.76388937 -0.54521126 1.6950911
-0.75513637 -0.54607475 1.6964
-0.74579549 -0.54536426 1.6972001
-0.73626202 -0.54405314 1.6980001
-0.7277143 -0.54497719 1.6980001
-0.95249718 -0.53527433 1.6980001
-0.94652385 -0.53706384 1.6960001
-0.93956006 -0.53527433 1.6980001
-0.90344387 -0.53419626 1.6980001
-0.89403522 -0.53504241 1.6960001
-0.8845585 -0.53608274 1.6924002
-0.87684101 -0.53804481 1.694
-0.86274582 -0.53608292 1.6980001
-0.85443348 -0.53577006 1.6922858
-0.84521449 -0.53439051 1.6922858
-0.8359642 -0.53623849 1.6936364
-0.82924956 -0.53884959 1.694
-0.81746578 -0.53527433 1.6980001
-0.80959052 -0.53436196 1.6900001
-0.76814288 -0.53850859 1.6980001
-0.74469435 -0.53527433 1.6980001
-0.73741722 -0.53527433 1.6980001
-0.72609717 -0.53527433 1.6980001
-0.91126001 -0.52476287 1.6980001
-0.90490705 -0.52603346 1.6980001
-0.86193722 -0.5271886 1.6980001
-0.85476381 -0.52503955 1.6950002
-0.84595013 -0.52730787 1.6932001
-0.83768004 -0.52880573 1.6980001
-0.82393438 -0.52476287 1.6980001
-0.81503993 -0.52557147 1.6980001
-0.80695432 -0.5223372 1.6980001
-0.79563433 -0.5223372 1.6980001
-0.91692007 -0.51425147 1.6980001
-0.90527225 -0.51410103 1.6921821
-0.89972389 -0.51504767 1.6900001
-0.85417497 -0.51651543 1.6980002
-0.84595495 -0.51533186 1.6962223
-0.83519161 -0.5135622 1.6934286
-0.82489628 -0.51415241 1.6950002
-0.81450099 -0.51910287 1.6980001
-0.80372006 -0.5158686 1.6980001
-0.79279917 -0.51448411 1.6934286
-0.78705722 -0.5102191 1.6900001
-0.75520581 -0.51679265 1.6980001
-0.71316004 -0.5158686 1.6980001
-0.7066915 -0.51748574 1.6980001
-0.92177153 -0.50778288 1.6980001
-0.9136858 -0.50681263 1.6980002
-0.90691137 -0.50640625 1.6957142
-0.85223436 -0.50778288 1.6980001
-0.84519655 -0.50628704 1.6968572
-0.83434021 -0.50473636 1.6932003
-0.82878572 -0.50697434 1.6980001
-0.80048579 -0.50616574 1.6980001
-0.79220766 -0.50313711 1.6900002
-0.78725374 -0.5053817 1.6931999
-0.75391197 -0.50681257 1.6980002
-0.94602865 -0.49322861 1.6980001
-0.93734294 -0.49368384 1.6940001
-0.92869532 -0.49090481 1.6900001
-0.84486341 -0.49576813 1.697
-0.8343088 -0.49542332 1.6944447
-0.82959431 -0.49646288 1.6980001
-0.80048579 -0.49646291 1.6980001
-0.79251176 -0.49451116 1.6913334
-0.78668451 -0.49490356 1.6926666
-0.75520575 -0.49969718 1.6980001
-0.94441152 -0.48676002 1.6980001
-0.93660897 -0.48308003 1.6926666
-0.83498478 -0.48891619 1.6980001
-0.82959431 -0.48999432 1.6980001
-0.7940172 -0.48918572 1.6980001
-0.75520575 -0.48756859 1.6980001
-0.93412006 -0.47754288 1.694
-0.93632579 -0.45118287 1.6980001
-0.62228388 -0.69052386 1.7060001
-0.61578482 -0.69377333 1.7060002
-0.60557204 -0.69284493 1.7060002
-0.59953719 -0.69214863 1.7060001
-0.6450305 -0.68240005 1.7060001
-0.62228388 -0.68564957 1.7060001
-0.61643469 -0.68532461 1.7060001
-0.60644239 -0.68443096 1.7060002
-0.59953719 -0.68564957 1.7060001
-0.54754478 -0.68402481 1.7060001
-0.505301 -0.68727434 1.7060001
-0.79775816 -0.67752576 1.7060001
-0.74251622 -0.67427623 1.7060001
-0.64438057 -0.67232651 1.7060001
-0.63593185 -0.67232656 1.7060001
-0.62634581 -0.67265153 1.7060001
-0.61686802 -0.67319304 1.706
-0.60928577 -0.67752576 1.7060001
-0.66290289 -0.66290289 1.7060001
-0.65412915 -0.66257793 1.7060001
-0.64719683 -0.66669399 1.706
-0.63593185 -0.66517752 1.7060001
-0.62715816 -0.66615242 1.7060001
-0.61903435 -0.66777718 1.7060001
-0.8594991 -0.65152955 1.7060001
-0.76688766 -0.65152955 1.7060001
-0.67102671 -0.6580286 1.7060001
-0.66209054 -0.65559149 1.7060001
-0.65607893 -0.65607893 1.7060001
-0.64568043 -0.65347922 1.7060001
-0.63690668 -0.65315431 1.7060001
-0.53129721 -0.65477908 1.7060001
-0.52804768 -0.65640384 1.7060001
-0.91149151 -0.6450305 1.7060001
-0.90499252 -0.64410204 1.7060002
-0.89849341 -0.6450305 1.7060001
-0.8724972 -0.64828002 1.7060001
-0.86924767 -0.64665526 1.7060001
-0.8555997 -0.64568043 1.7060001
-0.76580453 -0.64394736 1.7060002
-0.71652007 -0.64340574 1.7060001
-0.69052386 -0.64178097 1.7060001
-0.68483722 -0.64259338 1.7060001
-0.67752576 -0.64178097 1.7060001
-0.66127813 -0.64828002 1.7060001
-0.6580286 -0.64828002 1.7060001
-0.64568043 -0.64568043 1.7060001
-0.63636512 -0.64286417 1.706
-0.93098861 -0.63853145 1.7060001
-0.92773908 -0.63528192 1.7060001
-0.91149157 -0.63528192 1.706
-0.90539867 -0.63568807 1.7060002
-0.85516644 -0.63474035 1.7060002
-0.84650105 -0.63203239 1.706
-0.78151053 -0.63528192 1.7060001
-0.77392834 -0.63636512 1.706
-0.7652629 -0.63528192 1.7060002
-0.75876385 -0.63853145 1.7060001
-0.71327055 -0.63528192 1.7060001
-0.7018972 -0.63690668 1.7060001
-0.69377333 -0.63690668 1.7060002
-0.68467474 -0.63723165 1.7060001
-0.67644262 -0.63419873 1.706
-0.66127813 -0.63203239 1.7060001
-0.65369588 -0.63311559 1.706
-0.64828002 -0.63690668 1.7060001
-0.63528192 -0.63528192 1.7060001
-0.92448956 -0.62878293 1.7060001
-0.91381258 -0.6255334 1.7060002
-0.90564233 -0.62618327 1.7060001
-0.89849341 -0.62228388 1.7060001
-0.82700384 -0.6255334 1.7060001
-0.77501148 -0.6255334 1.7060001
-0.7652629 -0.62715816 1.7060001
-0.75876385 -0.6255334 1.706
-0.71083343 -0.6255334 1.7060001
-0.70352197 -0.62488353 1.7060001
-0.69702291 -0.62228388 1.7060001
-0.67102671 -0.6255334 1.7060001
-0.66499192 -0.6250692 1.7060002
-0.6580286 -0.6255334 1.7060001
-0.91230392 -0.61659724 1.7060001
-0.90499246 -0.61740959 1.7060001
-0.89524388 -0.61903435 1.706
-0.88549536 -0.61903435 1.706
-0.71002102 -0.61903435 1.7060001
-0.70270956 -0.61822194 1.7060001
-0.69702291 -0.61740959 1.7060001
-0.67427623 -0.61822194 1.7060001
-0.66452765 -0.61822194 1.7060001
-0.91279125 -0.60668617 1.7060001
-0.90824199 -0.60928577 1.7060001
-0.87899625 -0.60603625 1.7060001
-0.76201338 -0.60278672 1.7060001
-0.75713909 -0.60603625 1.7060001
-0.74576575 -0.60278672 1.7060001
-0.7343924 -0.60278672 1.7060001
-0.72626859 -0.60278672 1.706
-0.6815877 -0.60684866 1.7060001
-0.67644262 -0.60495305 1.706
-0.92773908 -0.59303814 1.7060001
-0.91279137 -0.59693754 1.7060001
-0.77826101 -0.59953719 1.7060001
-0.76309657 -0.598454 1.706
-0.75659752 -0.59628767 1.706
-0.74576575 -0.59628767 1.706
-0.7343924 -0.59628767 1.7060002
-0.72821832 -0.59563774 1.7060001
-0.71895719 -0.59547526 1.7060001
-0.70027244 -0.59303814 1.7060001
-0.68294162 -0.59628767 1.706
-0.67468244 -0.59588146 1.7060002
-0.92665595 -0.58653909 1.706
-0.89477962 -0.58375376 1.7060002
-0.81400579 -0.58004004 1.7060001
-0.80425721 -0.5816648 1.7060001
-0.76851243 -0.58328956 1.7060001
-0.7522648 -0.58328956 1.706
-0.74540466 -0.58365065 1.7060002
-0.73565608 -0.58509487 1.7060002
-0.72735184 -0.58545595 1.7060002
-0.71543688 -0.58491439 1.706
-0.70514673 -0.58653909 1.7060001
-0.68077528 -0.58816385 1.7060001
-0.67427617 -0.58491427 1.706
-0.66615242 -0.58545589 1.7060002
-0.6580286 -0.58328956 1.706
-0.93098861 -0.57029146 1.7060001
-0.92611432 -0.57029146 1.7060001
-0.90174294 -0.57679051 1.7060001
-0.89686865 -0.57679051 1.7060001
-0.82050484 -0.57679051 1.7060001
-0.81400573 -0.57549071 1.7060001
-0.80588198 -0.57679051 1.7060001
-0.77284509 -0.57462412 1.706
-0.7652629 -0.57679051 1.7060001
-0.75334793 -0.57245779 1.706
-0.74901527 -0.57191622 1.7060001
-0.73601717 -0.57570738 1.706
-0.72626865 -0.57419091 1.7060001
-0.71489531 -0.57272863 1.7060001
-0.675901 -0.57354099 1.7060002
-0.66412145 -0.57354099 1.7060002
-0.65477908 -0.57354099 1.7060002
-0.93261337 -0.56298 1.7060001
-0.92448956 -0.56704193 1.706
-0.91539097 -0.56444228 1.7060001
-0.90824199 -0.56054288 1.7060001
-0.86794794 -0.56314248 1.7060001
-0.82212961 -0.56054288 1.7060001
-0.81346416 -0.56325084 1.7060002
-0.80506957 -0.56298 1.7060001
-0.77501148 -0.56054288 1.7060001
-0.7522648 -0.56704193 1.7060001
-0.74576575 -0.56270921 1.7060002
-0.73666704 -0.56184268 1.7060001
-0.71002102 -0.56379241 1.706
-0.675901 -0.56379241 1.7060002
-0.66452765 -0.56379247 1.7060002
-0.94073719 -0.5507943 1.7060001
-0.9342382 -0.55404383 1.7060002
-0.91230392 -0.55323148 1.7060001
-0.90824199 -0.55404383 1.7060001
-0.88224578 -0.5507943 1.7060001
-0.87639666 -0.55599356 1.7060001
-0.86816454 -0.55621022 1.706
-0.82050484 -0.55729336 1.7060001
-0.81346422 -0.55458546 1.7060002
-0.80534047 -0.55350226 1.7060002
-0.7934255 -0.55404383 1.706
-0.77501148 -0.55729336 1.7060001
-0.74414098 -0.55729336 1.7060001
-0.73764193 -0.55404383 1.7060001
-0.72464383 -0.5507943 1.7060001
-0.71392047 -0.55339396 1.7060001
-0.67644262 -0.55621022 1.706
-0.66777718 -0.55729336 1.7060001
-0.94236195 -0.5451076 1.7060001
-0.93470234 -0.54522371 1.7060002
-0.92773908 -0.54754478 1.7060001
-0.91257471 -0.54537845 1.706
-0.90824199 -0.54429525 1.706
-0.87574673 -0.54429525 1.7060002
-0.86762291 -0.54429525 1.7060001
-0.83025336 -0.54267049 1.7060001
-0.82700384 -0.54267049 1.7060001
-0.81307733 -0.54475945 1.7060002
-0.80379301 -0.54383099 1.7060002
-0.79288387 -0.54429525 1.7060001
-0.78516626 -0.54388905 1.7060002
-0.7766363 -0.54429525 1.7060002
-0.76445055 -0.54185814 1.7060001
-0.75551432 -0.54104573 1.706
-0.74414098 -0.54104573 1.7060001
-0.73601717 -0.54104573 1.706
-0.72464383 -0.54592001 1.7060001
-0.71814483 -0.54754478 1.7060001
-0.95373529 -0.53292191 1.7060002
-0.94561148 -0.53292191 1.7060001
-0.93516654 -0.53408247 1.7060002
-0.92286479 -0.53129721 1.7060001
-0.91669083 -0.5351966 1.7060001
-0.90499246 -0.53454673 1.7060001
-0.89524388 -0.53129721 1.706
-0.88549531 -0.53414047 1.7060002
-0.87574673 -0.53454673 1.7060002
-0.86924767 -0.53454667 1.706
-0.83350295 -0.53454667 1.7060002
-0.82375431 -0.5364964 1.7060001
-0.81205606 -0.5351966 1.7060001
-0.80425721 -0.53454673 1.7060002
-0.79125911 -0.53617144 1.7060001
-0.78476006 -0.5377962 1.7060001
-0.77284509 -0.53562993 1.706
-0.7652629 -0.53454667 1.7060002
-0.75551432 -0.53454667 1.7060002
-0.74511588 -0.53259695 1.7060001
-0.73561096 -0.53414053 1.7060002
-0.72572702 -0.53346354 1.7060002
-0.71597844 -0.53238034 1.7060002
-0.95211053 -0.52804768 1.7060001
-0.94723624 -0.52804768 1.7060001
-0.93261337 -0.52479815 1.7060001
-0.92205244 -0.52398574 1.7060001
-0.91799057 -0.52804768 1.7060001
-0.90304279 -0.52544802 1.7060001
-0.89617234 -0.52526236 1.7060002
-0.88332891 -0.52696449 1.706
-0.87574673 -0.5252043 1.7060002
-0.86708134 -0.52371496 1.7060002
-0.85300004 -0.52479815 1.7060001
-0.84406388 -0.52561051 1.7060002
-0.83443129 -0.52526236 1.7060002
-0.82050484 -0.52154863 1.7060001
-0.81075627 -0.52804768 1.7060001
-0.80518568 -0.52526242 1.7060002
-0.7934255 -0.52479815 1.7060002
-0.78800958 -0.52642292 1.7060001
-0.77176195 -0.52154863 1.7060001
-0.76566911 -0.52520436 1.7060002
-0.75616419 -0.52544802 1.7060001
-0.74901527 -0.52804768 1.7060001
-0.73926669 -0.52804768 1.7060001
-0.72580439 -0.52479815 1.7060002
-0.71533847 -0.52509362 1.7060001
-0.70595908 -0.52398574 1.7060001
-0.93098861 -0.51504958 1.7060001
-0.92611432 -0.51667434 1.7060001
-0.90390927 -0.51504958 1.706
-0.89524388 -0.51667434 1.7060001
-0.88549536 -0.51504958 1.706
-0.87574673 -0.51504958 1.706
-0.86599815 -0.51504958 1.7060002
-0.8594991 -0.51180005 1.7060001
-0.83350289 -0.5182991 1.7060001
-0.82321268 -0.51504958 1.7060002
-0.81563056 -0.51667434 1.7060001
-0.80750674 -0.5182991 1.7060001
-0.79125911 -0.51667434 1.7060001
-0.78670979 -0.51439965 1.7060001
-0.76566911 -0.51464337 1.7060002
-0.75551432 -0.51504958 1.7060001
-0.72464383 -0.5182991 1.7060001
-0.71471477 -0.51468849 1.7060002
-0.70514667 -0.51667434 1.7060001
-0.94317436 -0.50286388 1.7060001
-0.93423814 -0.505301 1.7060001
-0.91149151 -0.50205147 1.7060001
-0.90661722 -0.50692576 1.7060001
-0.89199436 -0.505301 1.7060001
-0.86274862 -0.50855052 1.7060001
-0.85624957 -0.50475937 1.7060002
-0.83025336 -0.505301 1.706
-0.82570398 -0.50595093 1.7060001
-0.81075627 -0.50367624 1.7060001
-0.80750674 -0.50367624 1.7060001
-0.79125911 -0.505301 1.7060001
-0.78800958 -0.50855052 1.7060001
-0.76485676 -0.5057072 1.7060002
-0.75388956 -0.50367624 1.7060001
-0.72464383 -0.50367624 1.7060001
-0.71652007 -0.505301 1.706
-0.95292288 -0.4963648 1.7060001
-0.94723624 -0.49880195 1.7060001
-0.91149151 -0.49555242 1.7060001
-0.85516644 -0.49555242 1.706
-0.84650105 -0.49230289 1.706
-0.83106571 -0.4963648 1.7060001
-0.82505417 -0.49425259 1.7060001
-0.81270599 -0.49425259 1.7060001
-0.80588198 -0.49230289 1.7060001
-0.79125911 -0.49230289 1.7060001
-0.78800958 -0.49880195 1.7060001
-0.7636382 -0.49555242 1.7060002
-0.75510812 -0.4959586 1.7060002
-0.72496879 -0.49620232 1.7060001
-0.71814483 -0.49880195 1.7060001
-0.95048577 -0.48580384 1.706
-0.94561148 -0.48255432 1.7060001
-0.88549531 -0.48580384 1.7060001
-0.84379309 -0.48688701 1.7060002
-0.83350301 -0.48580381 1.7060002
-0.82375431 -0.48580381 1.7060002
-0.81400579 -0.48742858 1.7060002
-0.80360729 -0.48775357 1.7060001
-0.7961334 -0.48742861 1.7060001
-0.76461303 -0.48645371 1.7060001
-0.75505012 -0.48487541 1.7060002
-0.74901527 -0.48255432 1.7060001
-0.73926669 -0.48580384 1.7060001
-0.72572702 -0.48634544 1.7060002
-0.84000194 -0.47930479 1.7060001
-0.83220309 -0.47735509 1.7060001
-0.82416052 -0.47564906 1.7060002
-0.76461303 -0.47475547 1.7060001
-0.75713909 -0.47605526 1.7060001
-0.93748766 -0.46305716 1.7060001
-0.82375431 -0.46630669 1.7060002
-0.81508899 -0.46630669 1.706
-0.94236195 -0.45818287 1.7060001
-0.82375431 -0.45980763 1.706
-0.81335592 -0.45850784 1.7060001
-0.80425721 -0.45980763 1.7060001
-0.54063338 -0.70070004 1.715
-0.53083336 -0.70070004 1.715
-0.52756673 -0.70070004 1.715
-0.59943336 -0.69090003 1.715
-0.55206668 -0.69416666 1.715
-0.54436672 -0.69323337 1.715
-0.53736669 -0.69416666 1.715
-0.52103335 -0.69416672 1.715
-0.5138467 -0.69286001 1.7149999
-0.50470001 -0.69090003 1.715
-0.60531336 -0.68240672 1.7149999
-0.55152225 -0.6843667 1.715
-0.54553336 -0.6876334 1.715
-0.53736669 -0.6876334 1.715
-0.51450008 -0.68763334 1.715
-0.5079667 -0.6876334 1.715
-0.6451667 -0.67130005 1.715
-0.62556672 -0.67293334 1.715
-0.61685556 -0.67456669 1.715
-0.60596669 -0.67620003 1.715
-0.5504334 -0.67456669 1.715
-0.54063338 -0.67456669 1.715
-0.53736669 -0.67456669 1.715
-0.66476673 -0.66476673 1.715
-0.65170002 -0.66476673 1.715
-0.6451667 -0.66803336 1.715
-0.63536674 -0.66640007 1.715
-0.62491333 -0.66607344 1.7149999
-0.61740005 -0.66803336 1.715
-0.5504334 -0.66150004 1.715
-0.54063338 -0.66150004 1.715
-0.53355557 -0.66476673 1.715
-0.52756673 -0.66150004 1.715
-0.5504334 -0.6582334 1.715
-0.54390007 -0.6582334 1.715
-0.53456664 -0.65403336 1.715
-0.52756673 -0.6582334 1.715
-0.90323341 -0.64353335 1.715
-0.89996672 -0.6451667 1.715
-0.64516675 -0.64190006 1.715
-0.63373339 -0.64353335 1.715
-0.55206668 -0.6451667 1.715
-0.53410006 -0.64843339 1.715
-0.93590003 -0.63210005 1.715
-0.90541118 -0.63536674 1.715
-0.89996672 -0.63863337 1.715
-0.76930004 -0.63210005 1.715
-0.70266002 -0.63471341 1.7149999
-0.69416666 -0.63373339 1.715
-0.68502009 -0.63471335 1.7149999
-0.67783338 -0.63210005 1.715
-0.65496671 -0.63318896 1.715
-0.6451667 -0.63700002 1.715
-0.63495839 -0.63495845 1.715
-0.62687337 -0.63602 1.7149999
-0.93590003 -0.62883335 1.715
-0.92610008 -0.62665558 1.715
-0.9048667 -0.62883335 1.715
-0.77256674 -0.62393337 1.715
-0.76799339 -0.62491333 1.7149999
-0.70233339 -0.62883335 1.715
-0.69525552 -0.62665558 1.715
-0.6843667 -0.62621999 1.7149999
-0.67674446 -0.62665558 1.715
-0.66258889 -0.62665558 1.715
-0.65660006 -0.62556666 1.715
-0.63210005 -0.62883335 1.715
-0.62556672 -0.62720001 1.715
-0.92283338 -0.6190334 1.715
-0.91956675 -0.6190334 1.715
-0.77256674 -0.61740005 1.715
-0.76603335 -0.6157667 1.715
-0.70233339 -0.61413336 1.715
-0.69463342 -0.61483335 1.715
-0.6843667 -0.6157667 1.715
-0.67415839 -0.61535835 1.715
-0.66435838 -0.61535835 1.715
-0.65660006 -0.6157667 1.715
-0.77501673 -0.6035167 1.715
-0.76603341 -0.60814446 1.715
-0.75950003 -0.60760003 1.715
-0.73010004 -0.60270005 1.715
-0.7268334 -0.60270005 1.715
-0.70151669 -0.60678339 1.715
-0.69416666 -0.60596669 1.715
-0.68600011 -0.60678339 1.715
-0.6736334 -0.60643339 1.715
-0.66476667 -0.60596669 1.715
-0.65692675 -0.60662001 1.7149999
-0.94243342 -0.59290004 1.715
-0.93753338 -0.59290004 1.715
-0.78726673 -0.59943336 1.715
-0.77542508 -0.59616673 1.715
-0.76603341 -0.59507781 1.715
-0.75868338 -0.59535003 1.715
-0.73010004 -0.59290004 1.715
-0.7268334 -0.59780002 1.715
-0.70350009 -0.59616673 1.715
-0.69416672 -0.59569997 1.715
-0.68681669 -0.59616673 1.715
-0.67130005 -0.59780002 1.715
-0.66476667 -0.59616673 1.715
-0.6582334 -0.59616673 1.715
-0.63427782 -0.59398896 1.715
-0.93590003 -0.58854449 1.715
-0.78236669 -0.58963335 1.715
-0.77637786 -0.58745557 1.715
-0.76603341 -0.58636665 1.715
-0.75950003 -0.58636671 1.715
-0.73010004 -0.58800006 1.715
-0.72574449 -0.5852778 1.715
-0.71158892 -0.58418894 1.715
-0.70355839 -0.58595836 1.715
-0.69416666 -0.58767337 1.7149999
-0.6863268 -0.58571339 1.7149999
-0.65660006 -0.58636671 1.715
-0.63373339 -0.58963335 1.715
-0.62883335 -0.58963335 1.715
-0.83136672 -0.57003337 1.715
-0.82483339 -0.57264674 1.7149999
-0.81503344 -0.5733 1.715
-0.76385564 -0.57874447 1.715
-0.75623339 -0.57983339 1.715
-0.74673039 -0.57448798 1.715
-0.73010004 -0.57003337 1.715
-0.72438335 -0.5773834 1.715
-0.7123667 -0.5765667 1.715
-0.70396668 -0.57493335 1.715
-0.69386971 -0.57448792 1.715
-0.68600011 -0.57493335 1.715
-0.67391336 -0.57526004 1.7149999
-0.66150004 -0.57003337 1.715
-0.65537506 -0.57493341 1.715
-0.64712673 -0.57722008 1.7149999
-0.93372226 -0.5645889 1.715
-0.92479336 -0.56284672 1.7149999
-0.91956675 -0.5618667 1.715
-0.83136672 -0.56513333 1.715
-0.82483339 -0.56676668 1.715
-0.81503344 -0.56676668 1.715
-0.72356671 -0.5618667 1.715
-0.71050006 -0.56350005 1.715
-0.70396668 -0.56350005 1.715
-0.69416672 -0.56349999 1.715
-0.68600011 -0.56349999 1.715
-0.67456669 -0.56350005 1.715
-0.66395003 -0.56268334 1.715
-0.65496671 -0.56676668 1.715
-0.9326334 -0.55533338 1.715
-0.92610002 -0.55370003 1.715
-0.91956675 -0.55696672 1.715
-0.88363338 -0.55370003 1.715
-0.87383342 -0.5531556 1.715
-0.81176674 -0.5504334 1.715
-0.80196673 -0.55206668 1.715
-0.79870003 -0.55206668 1.715
-0.71330011 -0.55276668 1.715
-0.70451111 -0.55478895 1.715
-0.69416672 -0.55370003 1.715
-0.68477505 -0.55329174 1.715
-0.67456675 -0.55370009 1.715
-0.66803336 -0.55533338 1.715
-0.94570005 -0.54226673 1.715
-0.93481112 -0.54335564 1.715
-0.92610002 -0.5444445 1.715
-0.91847783 -0.54607779 1.715
-0.80196673 -0.54226673 1.715
-0.79870003 -0.54390001 1.715
-0.78563339 -0.54063338 1.715
-0.73010004 -0.54390001 1.715
-0.72315836 -0.54349166 1.715
-0.71376675 -0.54390007 1.715
-0.70396674 -0.54390001 1.715
-0.96203339 -0.53083336 1.715
-0.94570005 -0.53279334 1.7149999
-0.93394005 -0.53410006 1.7149999
-0.92827779 -0.53518891 1.715
-0.89343339 -0.53083336 1.715
-0.81176674 -0.53736669 1.715
-0.80305558 -0.53627777 1.715
-0.79597783 -0.53464448 1.715
-0.78563339 -0.53410006 1.715
-0.77779341 -0.53409994 1.7149999
-0.75623339 -0.53083336 1.715
-0.74806672 -0.53083336 1.715
-0.7355445 -0.53083336 1.715
-0.71295005 -0.53655005 1.715
-0.70437509 -0.53450835 1.715
-0.6574167 -0.53410006 1.715
-0.96203345 -0.52430004 1.715
-0.95590836 -0.52430004 1.715
-0.94352227 -0.5221222 1.715
-0.93590009 -0.52626008 1.7149999
-0.92936671 -0.52756673 1.715
-0.89408672 -0.52397335 1.7149999
-0.88363343 -0.52234 1.7149999
-0.87710005 -0.52103335 1.715
-0.79216671 -0.52430004 1.715
-0.78563344 -0.5243001 1.715
-0.77779335 -0.52430004 1.7149999
-0.75427336 -0.52430004 1.7149999
-0.74643344 -0.52430004 1.715
-0.73704171 -0.52389169 1.715
-0.70342225 -0.52430004 1.715
-0.68110007 -0.52103335 1.715
-0.65496671 -0.52756673 1.715
-0.96203345 -0.51450008 1.715
-0.95746011 -0.5138467 1.7149999
-0.9473334 -0.51123339 1.715
-0.93590003 -0.51776671 1.715
-0.9048667 -0.51450002 1.715
-0.89561123 -0.51341116 1.715
-0.88363338 -0.51286674 1.715
-0.87465006 -0.51205003 1.715
-0.82319999 -0.51286674 1.715
-0.81462508 -0.51409173 1.715
-0.7847001 -0.51403338 1.715
-0.77746671 -0.51450008 1.715
-0.75460005 -0.51450002 1.715
-0.74752229 -0.5134111 1.715
-0.73500007 -0.51450008 1.715
-0.72552669 -0.5138467 1.7149999
-0.71295005 -0.51205003 1.715
-0.70396674 -0.51450008 1.715
-0.96203345 -0.50470001 1.715
-0.95713341 -0.50633335 1.715
-0.94896674 -0.5079667 1.715
-0.91303337 -0.50306666 1.715
-0.90731668 -0.50715005 1.715
-0.89452237 -0.50506294 1.715
-0.88363338 -0.50470006 1.715
-0.87383342 -0.50470001 1.715
-0.86599338 -0.50404668 1.7149999
-0.82442504 -0.50429171 1.715
-0.81666672 -0.50388336 1.715
-0.79216671 -0.50633335 1.715
-0.78563339 -0.50469995 1.715
-0.77637786 -0.50470001 1.715
-0.7529667 -0.50470001 1.715
-0.74684173 -0.50429171 1.715
-0.73663336 -0.50470006 1.715
-0.72356671 -0.50633335 1.715
-0.7142334 -0.50563335 1.715
-0.70723337 -0.50633335 1.715
-0.6876334 -0.5079667 1.715
-0.96203339 -0.49816671 1.715
-0.95876676 -0.49163336 1.715
-0.91385007 -0.49490002 1.715
-0.90976673 -0.49653336 1.715
-0.89343339 -0.49816671 1.715
-0.88232678 -0.4962067 1.7149999
-0.87383342 -0.49490002 1.715
-0.86444175 -0.4944917 1.715
-0.85750008 -0.49163336 1.715
-0.82483339 -0.49816671 1.715
-0.81503344 -0.49816671 1.715
-0.79298341 -0.49408334 1.715
-0.78726673 -0.49816671 1.715
-0.77648669 -0.49555334 1.7149999
-0.7529667 -0.49490002 1.715
-0.74643344 -0.49490008 1.715
-0.73663342 -0.49490002 1.715
-0.72302222 -0.49490002 1.715
-0.71376669 -0.49163336 1.715
-0.95658898 -0.48510003 1.715
-0.94896674 -0.48183337 1.715
-0.88036674 -0.48836669 1.715
-0.87290007 -0.48556668 1.715
-0.8640334 -0.48510006 1.715
-0.85423344 -0.48510006 1.715
-0.84770006 -0.48346668 1.715
-0.82265562 -0.48292223 1.715
-0.8156867 -0.4844467 1.7149999
-0.79706669 -0.48836669 1.715
-0.77256674 -0.48510003 1.715
-0.76685011 -0.48265001 1.715
-0.75541669 -0.48346668 1.715
-0.74684173 -0.48469174 1.715
-0.73627043 -0.48437411 1.715
-0.72315836 -0.48469165 1.715
-0.71539998 -0.4851 1.715
-0.94243342 -0.47530004 1.715
-0.87301672 -0.47775 1.715
-0.86240005 -0.47693339 1.715
-0.8526001 -0.47856671 1.715
-0.84443337 -0.47693336 1.715
-0.83708334 -0.47448337 1.715
-0.8215667 -0.47693336 1.715
-0.81666678 -0.47530004 1.715
-0.79380006 -0.47203335 1.715
-0.77583337 -0.47693336 1.715
-0.76603335 -0.47312224 1.715
-0.75582504 -0.47489169 1.715
-0.74725008 -0.47775006 1.715
-0.73467338 -0.47726002 1.7149999
-0.72030002 -0.47693336 1.715
-0.71507341 -0.4759534 1.7149999
-0.95223337 -0.46550003 1.715
-0.94569999 -0.46658888 1.715
-0.83545005 -0.4663167 1.715
-0.8215667 -0.46550003 1.715
-0.81448889 -0.46658894 1.715
-0.80523342 -0.46604446 1.715
-0.79502505 -0.46509171 1.715
-0.76930004 -0.46550003 1.715
-0.70505553 -0.45352229 1.715
-0.61371624 -0.70396864 1.723
-0.60222954 -0.70068669 1.723
-0.55956477 -0.70068669 1.723
-0.54479623 -0.70068669 1.723
-0.53527868 -0.70199949 1.7229999
-0.52412021 -0.70199949 1.7229999
-0.51690006 -0.70068669 1.723
-0.59730673 -0.69412291 1.723
-0.55956477 -0.69576383 1.723
-0.54315525 -0.69084102 1.723
-0.53330958 -0.69412297 1.7229998
-0.52455777 -0.69357592 1.7229999
-0.50705433 -0.69084102 1.723
-0.60879338 -0.68099529 1.723
-0.56612861 -0.68230802 1.7229999
-0.55682987 -0.68318319 1.7229999
-0.5464372 -0.68427718 1.7229998
-0.53495055 -0.68427712 1.7229997
-0.52346385 -0.68427724 1.7229998
-0.51361817 -0.68427724 1.7229998
-0.50705433 -0.68755907 1.723
-0.61404443 -0.67377508 1.7229999
-0.60660541 -0.67333746 1.7229999
-0.59472805 -0.67443138 1.7229998
-0.58746099 -0.67114955 1.723
-0.57269239 -0.67114955 1.723
-0.5694105 -0.67114955 1.723
-0.55669314 -0.67402124 1.7229998
-0.5468474 -0.67402124 1.7229998
-0.5344035 -0.6747961 1.7229998
-0.52387404 -0.67484164 1.7229998
-0.51443863 -0.67689288 1.723
-0.65255213 -0.66567975 1.723
-0.64708227 -0.66567975 1.723
-0.63504863 -0.66130388 1.723
-0.62473404 -0.66364807 1.7229998
-0.61535716 -0.66458583 1.7229998
-0.60551143 -0.66458577 1.7229998
-0.59525555 -0.66417557 1.7229998
-0.58623028 -0.66417551 1.7229998
