# .PCD v0.7 - Point Cloud Data file format
VERSION 0.7
FIELDS x y z
SIZE 4 4 4
TYPE F F F
COUNT 1 1 1
WIDTH 1488
HEIGHT 1
VIEWPOINT 0 0 0 1 0 0 0
POINTS 1488
DATA ascii
0.10838457 -0.055949152 1.419
0.11587145 -0.055122856 1.4175
0.1247 -0.054671429 1.4189998
0.13456629 -0.053661149 1.4158001
0.14219715 -0.053380001 1.4130001
0.38891146 -0.056520004 1.4130001
0.39475948 -0.055041146 1.4166
0.40205002 -0.056084286 1.419
0.12027715 -0.047300003 1.419
0.13703486 -0.046218861 1.419
0.14510898 -0.046245717 1.4164286
0.15413274 -0.044262599 1.4162726
0.16165572 -0.043107145 1.4145001
0.33508289 -0.041717146 1.4130001
0.34392613 -0.042870615 1.4130001
0.3552686 -0.041717146 1.4130001
0.36738002 -0.043062858 1.4130001
0.3751263 -0.04392457 1.4148
0.38387614 -0.046187796 1.4151819
0.15406287 -0.039191432 1.419
0.16571572 -0.036024284 1.4184999
0.17487511 -0.034469794 1.4155715
0.18555509 -0.033923376 1.4146365
0.19367488 -0.031516004 1.4142001
0.20051144 -0.030951431 1.4130001
0.3068229 -0.030951431 1.4130001
0.31579432 -0.031848572 1.4130001
0.32566285 -0.032297142 1.4130001
0.33555815 -0.035033338 1.415
0.34384206 -0.036874693 1.4189999
0.3540743 -0.039191432 1.419
0.3635343 -0.039191432 1.419
0.17595601 -0.027839428 1.419
0.18514572 -0.028380001 1.419
0.1951849 -0.027221635 1.4189999
0.20561592 -0.024879184 1.4177142
0.21501167 -0.024600657 1.4171538
0.22409858 -0.022947142 1.4175
0.23414575 -0.022664677 1.4151819
0.244553 -0.022632468 1.4130001
0.25649503 -0.024235003 1.4137502
0.26513919 -0.022558779 1.4172858
0.27520427 -0.022930004 1.4165001
0.28484508 -0.024346154 1.4143847
0.29474449 -0.023898367 1.4168571
0.30488619 -0.025628099 1.4165001
0.31411797 -0.026415106 1.4172858
0.32443386 -0.024879184 1.4177144
0.3341032 -0.026277777 1.4189999
0.21758002 -0.017568573 1.419
0.22622915 -0.016487429 1.419
0.23514859 -0.016217144 1.4189999
0.24426574 -0.016192382 1.4170002
0.25235906 -0.016192382 1.4170002
0.27974573 -0.017568573 1.419
0.28515145 -0.017568573 1.419
0.29190859 -0.017568573 1.419
0.20764287 -0.48314288 1.4250001
0.21415715 -0.48612863 1.4250001
0.22528571 -0.48857147 1.4250001
0.23410715 -0.48925003 1.4250001
0.24835716 -0.4899286 1.4250001
0.2571786 -0.4878929 1.4250001
0.26437142 -0.48585716 1.4250001
0.27414286 -0.4872143 1.4250001
0.28500003 -0.4899286 1.4250001
0.29608336 -0.48563099 1.4250001
0.3049694 -0.48372453 1.4250001
0.31485716 -0.48314288 1.4250001
0.32435715 -0.48178574 1.4250001
0.17642859 -0.47092861 1.4250001
0.18411906 -0.47454765 1.4250001
0.19542858 -0.47635716 1.4250001
0.20492858 -0.47907147 1.4250001
0.29992861 -0.47907147 1.4250001
0.3067143 -0.47907147 1.4250001
0.31078574 -0.47907147 1.4250001
0.32775 -0.4783929 1.4250001
0.33521429 -0.47500005 1.4250001
0.34426194 -0.47273815 1.4250001
0.3524048 -0.47183338 1.4250001
0.13888095 -0.46097621 1.4250001
0.14555359 -0.46244651 1.4250001
0.15505357 -0.46583933 1.4250001
0.16285715 -0.46685717 1.4250001
0.17235716 -0.4682143 1.4250001
0.35692859 -0.4682143 1.4250001
0.36642861 -0.46550003 1.4250001
0.37728575 -0.46278575 1.4250001
0.38407144 -0.46007144 1.4250001
0.13888095 -0.45464289 1.4250001
0.14611906 -0.45419049 1.4250001
0.38769051 -0.45554766 1.4250001
0.12530953 -0.44378576 1.4250001
0.13598572 -0.44758573 1.4250001
0.38950002 -0.44921431 1.4250001
0.39357144 -0.44650003 1.4250001
0.40239286 -0.44242859 1.4250001
0.098166674 -0.43111908 1.4250001
0.10178572 -0.43428576 1.4250001
0.11535715 -0.43835717 1.4250001
0.41528577 -0.4356429 1.4250001
0.088214293 -0.42207146 1.4250001
0.094185725 -0.42532858 1.4250001
0.42207146 -0.42750004 1.4250001
0.43157145 -0.4234286 1.4250001
0.086585715 -0.41555715 1.4250001
0.090928577 -0.41800004 1.4250001
0.4349643 -0.4166429 1.4250001
0.44242859 -0.41121432 1.4250001
0.077357151 -0.40035716 1.4250001
0.081880957 -0.40533337 1.4250001
0.44650003 -0.40850002 1.4250001
0.45373812 -0.40307149 1.4250001
0.067857146 -0.3922143 1.4250001
0.074642867 -0.39583337 1.4250001
0.080071434 -0.39764288 1.4250001
0.45735717 -0.3922143 1.4250001
0.063785717 -0.3827143 1.4250001
0.46007144 -0.38542861 1.4250001
0.055100005 -0.37321433 1.4250001
0.061071433 -0.37864289 1.4250001
0.46730956 -0.37411904 1.4250001
0.47092861 -0.37185717 1.4250001
0.047500003 -0.36235717 1.4250001
0.051571433 -0.36507145 1.4250001
0.47454762 -0.36326194 1.4250001
0.046957146 -0.35475716 1.4250001
0.050214291 -0.35828573 1.4250001
0.47635716 -0.35760716 1.4250001
0.48178574 -0.35150003 1.4250001
0.039357144 -0.34200001 1.4250001
0.042750001 -0.34471431 1.4250001
0.48630956 -0.34607145 1.4250001
0.039357144 -0.33792859 1.4250001
0.4899286 -0.33657146 1.4250001
0.49264288 -0.33250001 1.4250001
0.03501429 -0.3249 1.4250001
0.49354765 -0.32435715 1.4250001
0.028500002 -0.31214288 1.4250001
0.031892858 -0.31689286 1.4250001
0.49535719 -0.31485716 1.4250001
0.0285 -0.30535716 1.4250001
0.031214288 -0.30535716 1.4250001
0.49807146 -0.30535716 1.4250001
0.50078577 -0.30264288 1.4250001
0.025785716 -0.29495239 1.4250001
0.49807146 -0.29857147 1.4250001
0.50146431 -0.29585716 1.4250001
0.022683676 -0.28480616 1.4250001
0.50388777 -0.2844184 1.4250001
0.020357145 -0.27414286 1.4250001
0.50621432 -0.27414286 1.4250001
0.017642858 -0.26464286 1.4250001
0.020357145 -0.26464286 1.4250001
0.50730002 -0.26518574 1.4250001
0.017642858 -0.25514287 1.4250001
0.020357145 -0.25514287 1.4250001
0.50621432 -0.25514287 1.4250001
0.017642858 -0.24428573 1.4250001
0.5089286 -0.24564289 1.4250001
0.017642858 -0.23478574 1.4250001
0.5080238 -0.23297621 1.4250001
0.51164287 -0.23478574 1.4250001
0.021261908 -0.22438096 1.4250001
0.50737756 -0.22586736 1.4250001
0.024880955 -0.21578573 1.4250001
0.50519645 -0.21476787 1.4250001
0.025785716 -0.2022143 1.4250001
0.49807146 -0.20492859 1.4250001
0.023976192 -0.19542857 1.4250001
0.49807146 -0.19542858 1.4250001
0.50078577 -0.19407144 1.4250001
0.026464287 -0.18457144 1.4250001
0.49644288 -0.18375716 1.4250001
0.0285 -0.17507143 1.4250001
0.031214288 -0.17507143 1.4250001
0.49332145 -0.17575 1.4250001
0.028500002 -0.16557145 1.4250001
0.031214288 -0.16557145 1.4250001
0.4899286 -0.1642143 1.4250001
0.49264288 -0.16828573 1.4250001
0.028500002 -0.15878573 1.4250001
0.033250004 -0.15471429 1.4250001
0.48857147 -0.1547143 1.4250001
0.038678572 -0.14589287 1.4250001
0.042976189 -0.14340477 1.4250001
0.48450002 -0.14521429 1.4250001
0.043880954 -0.13526191 1.4250001
0.47635713 -0.13254763 1.4250001
0.48269048 -0.13707143 1.4250001
0.045328576 -0.12540001 1.4250001
0.051571433 -0.12078572 1.4250001
0.4664048 -0.12259524 1.4250001
0.47273812 -0.12711906 1.4250001
0.046414286 -0.1159 1.4250001
0.053230163 -0.11475399 1.4250001
0.061071433 -0.11264286 1.4250001
0.46482146 -0.11467858 1.4250001
0.05598215 -0.10755357 1.4250001
0.061976194 -0.10495239 1.4250001
0.45600003 -0.10314286 1.4250001
0.46210715 -0.10789286 1.4250001
0.058357146 -0.099071436 1.4250001
0.066198416 -0.095150799 1.4250001
0.071928576 -0.090928577 1.4250001
0.44559526 -0.094547629 1.4250001
0.45464289 -0.099071436 1.4250001
0.069214292 -0.085500002 1.4250001
0.073624998 -0.08312501 1.4250001
0.43455714 -0.084414288 1.4250001
0.44107145 -0.088214293 1.4250001
0.074642859 -0.077357151 1.4250001
0.083238095 -0.072833337 1.4250001
0.41845241 -0.072833337 1.4250001
0.42478573 -0.074303575 1.4250001
0.43130001 -0.075185724 1.4250001
0.085500002 -0.069214292 1.4250001
0.095000006 -0.064464286 1.4250001
0.10178572 -0.061071433 1.4250001
0.40850002 -0.062428575 1.4250001
0.41325003 -0.067178577 1.4250001
0.42614287 -0.069214292 1.4250001
0.10517857 -0.05428572 1.4250001
0.11400001 -0.050214291 1.4250001
0.12621428 -0.050214291 1.4250001
0.39492857 -0.050214291 1.4250001
0.40307149 -0.052023813 1.4250001
0.1159 -0.046414286 1.4250001
0.12500794 -0.044785719 1.4250001
0.13435715 -0.043622453 1.4250001
0.38950002 -0.042071432 1.4250001
0.39357144 -0.047500003 1.4250001
0.13978572 -0.039357144 1.4250001
0.14598981 -0.037030615 1.4250001
0.1547143 -0.033928569 1.4250001
0.16285715 -0.032571431 1.4250001
0.34715718 -0.03284286 1.4250001
0.35511908 -0.034833334 1.4250001
0.36507145 -0.035557147 1.4250001
0.37430006 -0.037185721 1.4250001
0.38441071 -0.037660714 1.4250001
0.15697621 -0.027595242 1.4250001
0.16625001 -0.025559528 1.4250001
0.17473218 -0.022732146 1.4250001
0.18457144 -0.023071432 1.4250001
0.19497618 -0.022166669 1.4250001
0.20357144 -0.020357145 1.4250001
0.25921431 -0.020357145 1.4250001
0.26328573 -0.020357145 1.4250001
0.30535716 -0.020357145 1.4250001
0.31576195 -0.021261906 1.4250001
0.32300001 -0.020357145 1.4250001
0.33589286 -0.021035716 1.4250001
0.34390002 -0.025242859 1.4250001
0.35150003 -0.028500002 1.4250001
0.18321431 -0.017642858 1.4250001
0.19678573 -0.017642858 1.4250001
0.20531633 -0.015704082 1.4250001
0.21405846 -0.014681819 1.4250001
0.22392857 -0.013765307 1.4250001
0.23478574 -0.012214285 1.4250001
0.24428573 -0.012214286 1.4250001
0.25595716 -0.013842858 1.4250001
0.26464286 -0.016285716 1.4250001
0.27414289 -0.016285716 1.4250001
0.28500003 -0.014928573 1.4250001
0.29605103 -0.015316328 1.4250001
0.30535713 -0.016285716 1.4250001
0.31427553 -0.016479593 1.4250001
0.32571429 -0.017642858 1.4250001
0.33521429 -0.017642858 1.4250001
0.21442859 -0.0095000006 1.4250001
0.22610001 -0.0089571429 1.4250001
0.23424287 -0.0084142862 1.4250001
0.24473812 -0.0085952384 1.4250001
0.25432858 -0.0084142862 1.4250001
0.21555287 -0.49250716 1.4325001
0.2258143 -0.49679145 1.4369999
0.23369622 -0.49610004 1.4350001
0.24310002 -0.49302289 1.434
0.25570688 -0.49747142 1.4358
0.26455399 -0.49617624 1.4343333
0.27257144 -0.49199146 1.4310001
0.28876859 -0.49679145 1.437
0.29626983 -0.4959988 1.4335715
0.30471486 -0.49295145 1.4322001
0.31614003 -0.49405432 1.4369999
0.32708859 -0.49131718 1.4369999
0.33530006 -0.49131718 1.4369999
0.17745811 -0.48219338 1.4369999
0.18539767 -0.48467615 1.4342729
0.19452098 -0.48517051 1.4350001
0.20372288 -0.48594072 1.43325
0.21124287 -0.48926574 1.4310001
0.30800575 -0.48926574 1.4310001
0.31413859 -0.48858434 1.4310001
0.32436001 -0.48722142 1.4310001
0.33554405 -0.48422232 1.4322001
0.34437239 -0.48449433 1.4330001
0.35503063 -0.48359963 1.4361429
0.36267146 -0.48036861 1.437
0.15400286 -0.47018576 1.4310001
0.16696572 -0.47489432 1.437
0.17514002 -0.47630194 1.4330001
0.34616575 -0.47836289 1.4310001
0.35525146 -0.47654572 1.4310001
0.36394578 -0.47316176 1.4334
0.37225145 -0.47215718 1.437
0.13793716 -0.46297145 1.434
0.15400286 -0.46746004 1.4310001
0.37583718 -0.46876672 1.4350001
0.38469321 -0.46660861 1.4334
0.39433146 -0.46453527 1.4360002
0.40099147 -0.46120861 1.437
0.11906572 -0.45162863 1.437
0.12399258 -0.45299715 1.437
0.133495 -0.45410144 1.4340001
0.3957772 -0.45441148 1.4317501
0.40494511 -0.45421368 1.4370002
0.098537147 -0.44204861 1.437
0.10574915 -0.44240516 1.4346001
0.11403573 -0.44420075 1.4340001
0.12470144 -0.44701716 1.4310001
0.39931718 -0.44838002 1.4310001
0.40476859 -0.44701716 1.4310001
0.41410002 -0.44462478 1.4350001
0.42220432 -0.44273287 1.437
0.087588578 -0.43383718 1.437
0.094468907 -0.4359673 1.4330001
0.42488289 -0.4354029 1.4318571
0.43315288 -0.43315288 1.437
0.078008577 -0.42152002 1.437
0.08467029 -0.42528349 1.4340001
0.091311432 -0.42793718 1.4310001
0.42793718 -0.42930004 1.4310001
0.43725431 -0.42497715 1.4325001
0.44277436 -0.42363033 1.4358002
0.07664001 -0.41467714 1.4370002
0.081576742 -0.41489267 1.431
0.44292864 -0.41658005 1.4310001
0.45162863 -0.41330862 1.437
0.068624087 -0.40451065 1.4370002
0.074692145 -0.40553501 1.4325001
0.45655718 -0.40749431 1.4310001
0.46212098 -0.4037286 1.4369999
0.058164291 -0.39209574 1.437
0.064633884 -0.39543635 1.4352858
0.073594287 -0.39931718 1.4310001
0.45928288 -0.39795431 1.4310001
0.46562412 -0.39332777 1.4361429
0.05561674 -0.3834894 1.4344286
0.062010001 -0.38637006 1.4310001
0.46707433 -0.38513431 1.434
0.47355604 -0.3822886 1.4346001
0.04591633 -0.37417921 1.4361429
0.05210343 -0.37619263 1.4322001
0.47440061 -0.37619263 1.4322001
0.48173717 -0.37498865 1.4370002
0.044700004 -0.36547717 1.4332501
0.050425716 -0.36933431 1.4310001
0.4774543 -0.36842573 1.4310001
0.48380196 -0.36490193 1.4350001
0.038278572 -0.35272428 1.4355001
0.043216195 -0.35575047 1.4330001
0.48574102 -0.35736382 1.4340001
0.49222955 -0.35263526 1.4369999
0.028740002 -0.34214288 1.437
0.034682859 -0.3449904 1.4359093
0.49370718 -0.34416002 1.4340001
0.028055716 -0.33461574 1.437
0.034100637 -0.33512095 1.4323335
0.49632099 -0.33436671 1.4330001
0.52142572 -0.33530003 1.437
0.025981041 -0.32460389 1.4359092
0.032708574 -0.32708573 1.4310001
0.4981381 -0.32527336 1.4330001
0.50339144 -0.32298955 1.4350001
0.023474766 -0.31523573 1.436
0.50410253 -0.31557432 1.4344286
0.51184571 -0.31203431 1.437
0.01779143 -0.30382288 1.437
0.023476573 -0.30497316 1.4334
0.50523067 -0.3058641 1.431
0.51211941 -0.30519146 1.437
0.016080715 -0.29458499 1.4370002
0.021820001 -0.29594859 1.4320002
0.50743717 -0.29528573 1.4310001
0.51408124 -0.29485103 1.436143
0.014785195 -0.28471038 1.4353638
0.020442858 -0.28756288 1.4310001
0.50834572 -0.28483716 1.4310001
0.51493305 -0.28472099 1.4350001
0.01527943 -0.27482402 1.4328001
0.51316285 -0.27520534 1.4335715
0.013654287 -0.26494861 1.434
0.51482195 -0.26370195 1.4330001
0.013448573 -0.25437596 1.4327143
0.51493609 -0.25473431 1.4333999
0.52142572 -0.25318572 1.4369999
0.013845307 -0.24516857 1.4335716
0.51552099 -0.24548668 1.432
0.52142572 -0.24634287 1.437
0.014105716 -0.234394 1.4336667
0.5159753 -0.23366381 1.4320002
0.52142572 -0.23950002 1.437
0.01473943 -0.22470114 1.4334
0.51590222 -0.22431786 1.434
0.015290651 -0.21569377 1.4359093
0.021623269 -0.2148739 1.4318572
0.50834572 -0.21260573 1.4310001
0.51530063 -0.21476859 1.4343333
0.015054286 -0.20528573 1.4370002
0.021611022 -0.20501268 1.431
0.50562 -0.2044286 1.4309999
0.51454687 -0.20549031 1.4346001
0.015054286 -0.19433717 1.4370002
0.020442858 -0.19488859 1.4310001
0.50596076 -0.19488859 1.431
0.51336288 -0.19413145 1.4355
0.016696572 -0.18530458 1.437
0.022288572 -0.18515144 1.4330001
0.5042727 -0.18506318 1.4323334
0.51116145 -0.18544143 1.437
0.01779143 -0.17517716 1.437
0.023221431 -0.17487383 1.4345001
0.49744287 -0.17308287 1.4310001
0.50418216 -0.17534935 1.4353638
0.01779143 -0.16012287 1.437
0.022987274 -0.16441326 1.4353638
0.49635261 -0.16436058 1.4310001
0.50317812 -0.16514097 1.4370002
0.01779143 -0.15601715 1.437
0.024686815 -0.15476903 1.4342308
0.031345718 -0.15127715 1.4310001
0.49596286 -0.1557543 1.4346001
0.02600286 -0.14643717 1.4370002
0.034332383 -0.14392954 1.4325
0.48926574 -0.14446287 1.4310001
0.49464932 -0.1448393 1.4347501
0.036408573 -0.13508545 1.4353638
0.48670933 -0.13403787 1.4325
0.4935981 -0.1345762 1.4370002
0.038420819 -0.12502165 1.4335715
0.042248573 -0.12265715 1.4310001
0.47485834 -0.12402 1.431
0.48311776 -0.12569371 1.4346001
0.49131718 -0.12727715 1.437
0.03952286 -0.11856858 1.4310001
0.04385674 -0.11325265 1.4327143
0.47357526 -0.11463714 1.433
0.48128101 -0.11815334 1.4369999
0.039688572 -0.10264286 1.437
0.045140639 -0.10532985 1.4363334
0.052810714 -0.10459929 1.431
0.45928288 -0.10221429 1.4310001
0.46662983 -0.10479878 1.4344288
0.47303289 -0.10663572 1.4355
0.045847148 -0.099221438 1.437
0.054677553 -0.095681645 1.4352858
0.062418867 -0.093492001 1.4310001
0.44838002 -0.091311432 1.4310001
0.45537689 -0.094468899 1.4330001
0.46301088 -0.097085156 1.4358001
0.057936192 -0.088044763 1.4369999
0.0645734 -0.084317595 1.4333076
0.43747717 -0.081771433 1.4310001
0.44483912 -0.084412389 1.4335002
0.45344502 -0.085831434 1.4362502
0.066995233 -0.075200327 1.4356668
0.074957155 -0.073594294 1.4310001
0.43725431 -0.074351437 1.4325001
0.44387338 -0.076183818 1.4370002
0.45026004 -0.078008577 1.437
0.069797151 -0.069797151 1.437
0.076183818 -0.067972384 1.4370002
0.084453411 -0.064678468 1.4356155
0.093492009 -0.062418859 1.4310001
0.41602001 -0.064105719 1.4322002
0.42414984 -0.064964093 1.434
0.43450209 -0.065514021 1.4359092
0.44204861 -0.069797151 1.437
0.08676742 -0.057753719 1.437
0.09567108 -0.054668933 1.4351251
0.10312287 -0.051334288 1.4310001
0.40749431 -0.051788576 1.4310001
0.41334647 -0.056020718 1.4347501
0.42562574 -0.058848575 1.437
0.43383718 -0.058848575 1.437
0.098537147 -0.04516286 1.4370002
0.10523079 -0.045097455 1.4349999
0.11311715 -0.043806128 1.431
0.12674572 -0.04361143 1.4310001
0.39659145 -0.044520002 1.4310001
0.40407717 -0.045552384 1.4350001
0.10592744 -0.038593717 1.437
0.11520057 -0.035845526 1.4366001
0.12378688 -0.036066286 1.4346001
0.13434859 -0.036122859 1.4352858
0.14324859 -0.033422858 1.4325
0.3570686 -0.031345718 1.4310001
0.3655183 -0.031890862 1.4310001
0.37478575 -0.032027148 1.4310001
0.38387144 -0.032708574 1.4310001
0.39424032 -0.035701904 1.4356667
0.12317143 -0.028740002 1.437
0.1454788 -0.027532654 1.4352858
0.15498105 -0.024440782 1.4331819
0.16340402 -0.021005144 1.4322002
0.34616575 -0.020442858 1.4310001
0.35483959 -0.023953469 1.4314286
0.36482522 -0.02569169 1.4337274
0.37498859 -0.028055716 1.437
0.3845686 -0.028740002 1.4369999
0.15738572 -0.01779143 1.437
0.16461594 -0.016597142 1.4352858
0.17462571 -0.01637 1.4325
0.18588358 -0.015004287 1.4325
0.19427216 -0.013995001 1.4340001
0.20259431 -0.012960001 1.4325001
0.26439431 -0.012265715 1.4310001
0.27529716 -0.012265715 1.4310001
0.28483716 -0.012265715 1.4310001
0.29483142 -0.012265715 1.4310001
0.30528003 -0.012265715 1.4310001
0.31482002 -0.012265715 1.4310001
0.32470289 -0.013641428 1.4325
0.33472288 -0.014456572 1.4322002
0.34504572 -0.016364763 1.4320002
0.35460779 -0.016586531 1.4344286
0.36267146 -0.01779143 1.437
0.19844288 -0.0095800003 1.437
0.2054543 -0.0077419048 1.4350002
0.21566787 -0.0054578572 1.4332501
0.22479431 -0.0038200002 1.4340001
0.23508286 -0.0031812699 1.4323334
0.24489811 -0.0037876193 1.4330001
0.2543636 -0.0030692858 1.434
0.2642926 -0.0073685721 1.4334
0.27537104 -0.0083897961 1.4344288
0.2853893 -0.0075171441 1.4355001
0.29444745 -0.0073714294 1.4340001
0.30524206 -0.0083840834 1.4335716
0.31516939 -0.0080102058 1.436143
0.32572001 -0.0095800003 1.437
0.23950002 0.0013685715 1.437
0.24771145 0.0013685715 1.437
0.25482804 0.0019160003 1.437
0.24840002 -0.51336002 1.4490001
0.25364402 -0.51418805 1.4490001
0.31878003 -0.51612008 1.4490001
0.32154003 -0.51750004 1.4490001
0.20700002 -0.50094002 1.4490001
0.21666002 -0.50278002 1.449
0.22608143 -0.5031786 1.4475002
0.23594573 -0.50355256 1.4454
0.24564649 -0.50545073 1.4468184
0.25511357 -0.50541431 1.4460001
0.26634002 -0.50646001 1.449
0.27405146 -0.50403714 1.4460002
0.28509349 -0.50419062 1.4481431
0.2949124 -0.50484473 1.4470001
0.30455908 -0.50392479 1.4470001
0.31546801 -0.50259602 1.4490001
0.32568002 -0.50094002 1.4490001
0.33258003 -0.50094002 1.4490001
0.16974001 -0.49266005 1.4490001
0.17513716 -0.49370003 1.4480003
0.18403652 -0.49520165 1.4456668
0.19545072 -0.49482933 1.4452499
0.20434329 -0.49582332 1.4455715
0.21484669 -0.49794957 1.4430002
0.22126001 -0.49886575 1.4430001
0.24462287 -0.49886575 1.4430001
0.25149429 -0.49886575 1.4430001
0.27623144 -0.49886575 1.4430002
0.28447714 -0.49886575 1.4430002
0.30784002 -0.49886575 1.4430001
0.31196287 -0.49886575 1.4430001
0.32570574 -0.4961172 1.4430002
0.33395144 -0.4961172 1.4430002
0.34456533 -0.49552855 1.4447144
0.35346761 -0.49347815 1.4460001
0.36294004 -0.49266005 1.449
0.15594001 -0.48162004 1.449
0.16687961 -0.48527637 1.4481431
0.17385103 -0.48580536 1.4438572
0.18003143 -0.48787147 1.4430001
0.36523226 -0.48677269 1.4455715
0.37214002 -0.48254004 1.449
0.12420001 -0.47058004 1.4490001
0.13606802 -0.47278804 1.4490001
0.14493749 -0.47553307 1.4463334
0.15423429 -0.47786862 1.4460001
0.16463944 -0.47852629 1.4430001
0.3683086 -0.47825146 1.4430001
0.37665001 -0.47718146 1.4460001
0.3851237 -0.47604531 1.4464287
0.39330003 -0.47518003 1.449
0.40434003 -0.47058004 1.4490001
0.11843143 -0.46134287 1.4460001
0.12466401 -0.4637143 1.4448001
0.13336605 -0.4642657 1.4436667
0.39854288 -0.46863145 1.4430001
0.40717721 -0.46501717 1.4460001
0.4138886 -0.46350193 1.4470001
0.42090002 -0.46230003 1.4490001
0.43378004 -0.46322003 1.449
0.097980008 -0.45126003 1.4490001
0.10442001 -0.45218003 1.449
0.11513747 -0.45551908 1.4450001
0.12506001 -0.45763716 1.4430001
0.40816289 -0.45763716 1.4430001
0.41525072 -0.45512643 1.4437499
0.4246918 -0.45565113 1.4483336
0.43351719 -0.45402002 1.4490002
0.086847141 -0.44390005 1.4475002
0.094276011 -0.44554347 1.4430001
0.10444572 -0.44801718 1.4430001
0.11131715 -0.44939145 1.4430001
0.41915718 -0.44939145 1.4430001
0.42534146 -0.44801718 1.4430001
0.43364194 -0.44512668 1.4470001
0.44298002 -0.44206002 1.449
0.078660004 -0.43332005 1.4490001
0.082971431 -0.43457624 1.4439999
0.43702286 -0.43702286 1.4430001
0.44376698 -0.43433508 1.4438571
0.067620002 -0.42090002 1.4490001
0.07453756 -0.42462412 1.4455715
0.44847527 -0.42465433 1.4430002
0.45567602 -0.42365998 1.4490001
0.059340004 -0.41262004 1.4490001
0.065570198 -0.41449758 1.4472858
0.071737714 -0.41585889 1.4430001
0.45605147 -0.41684145 1.4445
0.46547717 -0.41176575 1.4460001
0.47058004 -0.41262004 1.4490001
0.05729837 -0.40464863 1.4472859
0.063217148 -0.40541431 1.443
0.46744481 -0.40598002 1.4450001
0.47278804 -0.40489206 1.4490001
0.048300002 -0.39330003 1.449
0.053950798 -0.3957032 1.4443333
0.061842863 -0.39991716 1.4430001
0.46863145 -0.39991716 1.4430001
0.47525674 -0.39535877 1.4464287
0.48254004 -0.39146003 1.449
0.044730712 -0.38368005 1.44525
0.052222859 -0.38754863 1.4430001
0.47687718 -0.38800669 1.4430002
0.4864696 -0.38403049 1.4470001
0.49266005 -0.38226002 1.4490001
0.036674861 -0.37367034 1.4478003
0.041311432 -0.37733716 1.4460001
0.4878715 -0.37518001 1.4430002
0.49447501 -0.37516648 1.4482503
0.028980002 -0.36018002 1.4490001
0.03587715 -0.36515719 1.4454001
0.4944686 -0.36506402 1.4454001
0.50094002 -0.36156002 1.4490001
0.027541906 -0.35392955 1.4460001
0.034357145 -0.35559645 1.443
0.49721661 -0.35484058 1.4430001
0.024319684 -0.34496987 1.4456668
0.49886575 -0.34632003 1.4430001
0.50438684 -0.34443945 1.4478003
0.52302003 -0.34086001 1.4490001
0.017231429 -0.33430576 1.4475002
0.023057461 -0.33547845 1.443
0.50549716 -0.33515933 1.44525
0.51566005 -0.33534002 1.449
0.52161103 -0.33572698 1.4472858
0.016507145 -0.32467145 1.4445
0.021530477 -0.3275381 1.4430002
0.50894386 -0.32478955 1.4430002
0.51494956 -0.32569242 1.4470001
0.52164006 -0.32982001 1.4490001
0.014862856 -0.3146829 1.4454001
0.5160715 -0.31606767 1.4450001
0.52302003 -0.31436402 1.4490001
0.0096600009 -0.30360001 1.4490001
0.014449287 -0.305565 1.44525
0.51810575 -0.30509144 1.4430001
0.52302003 -0.30498001 1.449
0.0078133345 -0.29511717 1.4480003
0.012368572 -0.29684573 1.4430001
0.52475142 -0.29475716 1.4470001
0.0071071438 -0.28532764 1.4450001
0.52414495 -0.28498083 1.4455715
0.0071599996 -0.27471489 1.4466002
0.52265429 -0.27459472 1.4447143
0.0072300001 -0.26558146 1.44675
0.52538145 -0.26441145 1.4460001
0.0071311696 -0.25572184 1.4457272
0.52730572 -0.25641003 1.4475002
-0.0013800001 -0.24150002 1.4490001
0.0060906122 -0.24459307 1.4451429
0.52607143 -0.24651429 1.4460001
-0.0023000001 -0.23460001 1.4490002
0.0051817587 -0.23487891 1.444846
0.5248372 -0.23455715 1.4445
0.0057754293 -0.22541775 1.4450002
0.52571881 -0.22519307 1.4455715
0.0055017853 -0.21477966 1.4456251
0.5236029 -0.21438858 1.4430001
0.0051085721 -0.20434412 1.4455718
0.52377522 -0.20381431 1.4460001
0.0058946945 -0.19490492 1.4455717
0.51810575 -0.19102573 1.4430001
0.52193713 -0.19554859 1.4460001
0.0080771437 -0.18618819 1.4481431
0.013293336 -0.18336286 1.4439999
0.51578575 -0.18347944 1.4441999
0.52026004 -0.18354003 1.449
0.014792859 -0.17515002 1.44525
0.50986004 -0.17178573 1.4430001
0.51505429 -0.17489715 1.4460001
0.52026004 -0.17664 1.4490001
0.015132573 -0.16594627 1.4448
0.50894386 -0.16399811 1.443
0.51459432 -0.16617429 1.4460001
0.015127431 -0.15542571 1.4441999
0.50583935 -0.15450287 1.44525
0.51336002 -0.15732001 1.4490001
0.016716328 -0.14652042 1.4455715
0.022446668 -0.14338382 1.443
0.50339144 -0.14525676 1.4447143
0.02504286 -0.13514039 1.4450002
0.032295719 -0.13261858 1.4430001
0.4981786 -0.13261858 1.4430001
0.50386858 -0.13716573 1.4475002
0.028980002 -0.12834001 1.4490001
0.033296738 -0.12471551 1.448143
0.48787147 -0.12231144 1.4430001
0.49379432 -0.12353144 1.44525
0.50094002 -0.12834001 1.4490001
0.037164003 -0.11480516 1.4454
0.48640859 -0.11452667 1.4450001
0.49266005 -0.11730001 1.4490001
0.035800409 -0.10505674 1.4460001
0.47665673 -0.10319062 1.4447144
0.48450577 -0.10618477 1.4480003
0.038557146 -0.097777151 1.4460001
0.044708576 -0.094922855 1.4445001
0.050848573 -0.092077151 1.4430001
0.46682 -0.094902292 1.4442002
0.47242007 -0.095220007 1.449
0.048300002 -0.089700006 1.4490001
0.054906234 -0.084925987 1.4446363
0.45672098 -0.081999056 1.4430002
0.46443665 -0.08501897 1.4462729
0.47058001 -0.086940013 1.449
0.057379052 -0.076659054 1.4460001
0.063259996 -0.072885714 1.4439999
0.44829202 -0.072287425 1.4430001
0.45564747 -0.074332565 1.4454001
0.46322003 -0.077740006 1.449
0.066606663 -0.066606663 1.4470001
0.073207304 -0.064039052 1.4443333
0.44447643 -0.065069281 1.4460001
0.45126003 -0.067620002 1.4490001
0.076944903 -0.056476325 1.4464287
0.084361829 -0.053616371 1.4435453
0.41732478 -0.052680954 1.4430002
0.42498636 -0.055080574 1.4460001
0.43426457 -0.05641257 1.4448
0.44298002 -0.059340004 1.4490001
0.0865108 -0.046087939 1.4470001
0.093548581 -0.044018574 1.4445
0.4087286 -0.042658102 1.4450001
0.41469431 -0.044084575 1.4466001
0.42090002 -0.048300002 1.4490001
0.097188577 -0.037218574 1.4475002
0.10360909 -0.034369096 1.4435455
0.11131715 -0.031608574 1.4430001
0.12780859 -0.03298286 1.4430001
0.13193144 -0.031608574 1.4430001
0.39854288 -0.03298286 1.4430001
0.40533325 -0.035432473 1.4462729
0.41400003 -0.035880003 1.4490001
0.10534409 -0.02776286 1.4472859
0.11559716 -0.026144763 1.4450001
0.12494885 -0.023636103 1.4446363
0.13468002 -0.024737146 1.4430002
0.1452162 -0.022446668 1.443
0.15254572 -0.020614287 1.4430001
0.3683086 -0.020614287 1.4430001
0.37591505 -0.023040714 1.4445001
0.38493201 -0.023692572 1.4466002
0.39401597 -0.026580002 1.4472859
0.40158004 -0.028980002 1.4490001
0.12696001 -0.017940002 1.4490001
0.13516787 -0.016550716 1.4482502
0.14591315 -0.015690859 1.4454
0.15458953 -0.014523493 1.4450002
0.16408972 -0.012918286 1.4430001
0.17453431 -0.012368572 1.4430002
0.18140572 -0.012368572 1.4430001
0.33807433 -0.012368572 1.4430001
0.34494576 -0.012368572 1.4430002
0.35368097 -0.012385715 1.4450001
0.36483145 -0.015140817 1.4455717
0.37508404 -0.016836001 1.4490001
0.38226002 -0.017940002 1.4490001
0.15583049 -0.0082733342 1.4480003
0.16550915 -0.0057853335 1.4474002
0.17489524 -0.0055038105 1.4460001
0.1842486 -0.0054978584 1.4437501
0.19487374 -0.0052222866 1.4430002
0.2047686 -0.0027485716 1.443
0.21438858 -0.0013742858 1.4430001
0.26592427 -0.0020614287 1.4430001
0.27485716 -0.0027485716 1.443
0.2852625 -0.002552245 1.443
0.29615861 -0.0020614287 1.4430001
0.30450246 -0.0029448981 1.443
0.31448206 -0.0025546942 1.4455717
0.32556599 -0.0038797408 1.4468185
0.33533433 -0.0063331435 1.4466002
0.34500003 -0.007590001 1.4490002
0.35397002 -0.0089700008 1.4490001
0.17664 0.0013800001 1.4490001
0.18500531 0.0025620409 1.448143
0.19482288 0.0037942859 1.4482502
0.20393738 0.0045632971 1.4476154
0.21470724 0.005241334 1.4470001
0.22519305 0.0051191836 1.4455715
0.23470207 0.0059073479 1.4460002
0.24476816 0.0060918373 1.4438572
0.25528002 0.0068794289 1.4442
0.26556855 0.0046908576 1.4478002
0.2748709 0.0051436368 1.4490002
0.28471428 0.0052104769 1.4473337
0.29573676 0.0059134695 1.448143
0.30457887 0.004691429 1.4484003
0.31408802 0.0035880003 1.4490002
0.32361001 0.0020700002 1.4490001
0.21528001 0.012420001 1.4490001
0.22494002 0.012420001 1.449
0.23479715 0.013602857 1.4490002
0.24481201 0.012972 1.4490001
0.25392002 0.012420001 1.4490001
0.26082003 0.012420001 1.4490001
0.28704002 0.012420001 1.4490001
0.29532003 0.012420001 1.4490001
0.30222002 0.012420001 1.4490001
0.21755716 -0.51132858 1.455
0.24434765 -0.5154857 1.455
0.25691146 -0.51631713 1.455
0.2638796 -0.51410002 1.455
0.27714288 -0.51132858 1.455
0.28822857 -0.51132858 1.455
0.30624288 -0.51410002 1.455
0.31525001 -0.51513928 1.455
0.32231718 -0.51299143 1.455
0.17460001 -0.50024289 1.455
0.18540858 -0.50356859 1.455
0.19815716 -0.50301433 1.455
0.20508572 -0.50440001 1.455
0.21478574 -0.50578576 1.455
0.23280001 -0.5085572 1.455
0.28545716 -0.5085572 1.455
0.3076286 -0.5085572 1.455
0.31525001 -0.50786436 1.455
0.32425717 -0.50717145 1.455
0.33534285 -0.50440001 1.455
0.34504288 -0.50301433 1.455
0.35520479 -0.50116676 1.455
0.36444288 -0.50024289 1.455
0.16674763 -0.49285242 1.455
0.17044286 -0.49747145 1.455
0.3561286 -0.49747145 1.455
0.36582857 -0.49677861 1.455
0.37414289 -0.49331433 1.455
0.13903333 -0.4817667 1.455
0.1455 -0.48361433 1.455
0.1552 -0.48569286 1.455
0.16351429 -0.48777145 1.455
0.37645242 -0.48730955 1.455
0.38384289 -0.48569292 1.455
0.3949286 -0.48084292 1.455
0.12517621 -0.47345242 1.455
0.1344143 -0.47668576 1.455
0.39770001 -0.47807145 1.455
0.4041667 -0.47437623 1.455
0.41571432 -0.47252861 1.455
0.11446001 -0.46476859 1.455
0.12055715 -0.46975717 1.455
0.41894767 -0.46883336 1.455
0.42603019 -0.46667781 1.455
0.43333268 -0.46461025 1.455
0.094228581 -0.45312861 1.455
0.10670001 -0.45728573 1.455
0.42818573 -0.45867145 1.455
0.43857861 -0.45590004 1.455
0.44204289 -0.45174289 1.455
0.081757151 -0.44342861 1.455
0.43927145 -0.44758573 1.455
0.44481432 -0.44666195 1.455
0.45035717 -0.44204289 1.455
0.076214291 -0.43511432 1.455
0.45312861 -0.43465242 1.455
0.066514283 -0.42402861 1.455
0.070671432 -0.42541432 1.455
0.45728576 -0.42818573 1.455
0.46421432 -0.4235667 1.455
0.055890482 -0.41248098 1.455
0.062357146 -0.41848576 1.455
0.46698573 -0.41848573 1.455
0.47622386 -0.41248098 1.455
0.048500001 -0.40047145 1.455
0.05265715 -0.40601429 1.455
0.47714767 -0.40786192 1.455
0.48195148 -0.40268859 1.455
0.04503572 -0.39423573 1.455
0.48694 -0.39548287 1.455
0.49192861 -0.39215717 1.455
0.036490481 -0.38199529 1.455
0.041571431 -0.38800001 1.455
0.48915717 -0.38938573 1.455
0.49539289 -0.38661432 1.455
0.50024289 -0.38245717 1.455
0.029100003 -0.37275717 1.455
0.032795239 -0.3755286 1.455
0.50162864 -0.37552857 1.455
0.027991433 -0.36555147 1.455
0.50440001 -0.3658286 1.455
0.022448573 -0.35446575 1.455
0.50736946 -0.35533676 1.455
0.51132858 -0.35197145 1.455
0.018014288 -0.34504285 1.455
0.020785715 -0.34781432 1.455
0.5085572 -0.34781432 1.455
0.5152086 -0.34448862 1.455
0.52380002 -0.34504288 1.455
0.015242858 -0.3367286 1.455
0.51640958 -0.3367286 1.455
0.0097000003 -0.32010001 1.455
0.012471429 -0.32564288 1.455
0.5251857 -0.32425717 1.455
0.53072858 -0.32287145 1.455
0.0097000003 -0.31455716 1.455
0.5279572 -0.31317145 1.455
0.53165239 -0.31640479 1.455
0.006928572 -0.30485716 1.455
0.5279572 -0.30624288 1.455
0.53165239 -0.30439529 1.455
0.0027714288 -0.29515716 1.455
0.53280717 -0.29585001 1.455
0.0019400001 -0.28462574 1.455
0.53183711 -0.2857343 1.455
0.0013857144 -0.27437145 1.455
0.53072858 -0.27390954 1.455
0.002494286 -0.26522574 1.455
0.53211427 -0.26467144 1.455
-0.0013857144 -0.25220001 1.455
0.0013857144 -0.25497144 1.455
0.53350002 -0.25497144 1.455
-0.0027714288 -0.24527144 1.455
0.0013857144 -0.24804287 1.455
0.53142142 -0.24457859 1.455
-0.0055428576 -0.23557144 1.455
0.53231227 -0.23576941 1.455
-0.0023095242 -0.22448574 1.455
0.53280711 -0.22448573 1.455
-0.0020785716 -0.21409288 1.455
0.53072858 -0.21755716 1.455
-0.0025734697 -0.20567958 1.455
0.53072858 -0.20370001 1.455
-0.0013857144 -0.19538574 1.455
0.5279572 -0.19677144 1.455
0.0041571432 -0.18568571 1.455
0.52518576 -0.18568572 1.455
0.0087761907 -0.17552383 1.455
0.52426195 -0.17367621 1.455
0.0097000003 -0.16628572 1.455
0.012471429 -0.16212858 1.455
0.51964289 -0.16351429 1.455
0.52333814 -0.16674763 1.455
0.012471429 -0.1538143 1.455
0.51594764 -0.15427619 1.455
0.013395239 -0.1455 1.455
0.51202142 -0.14619286 1.455
0.017460002 -0.13663144 1.455
0.020785715 -0.13164286 1.455
0.50717151 -0.13441429 1.455
0.026328575 -0.1261 1.455
0.031871431 -0.12055715 1.455
0.5011667 -0.12332857 1.455
0.029100003 -0.11501429 1.455
0.031871431 -0.11501429 1.455
0.49608576 -0.11501429 1.455
0.50024289 -0.11778572 1.455
0.029100003 -0.10670001 1.455
0.031871431 -0.10115715 1.455
0.48638573 -0.10208096 1.455
0.49285242 -0.10854763 1.455
0.036028575 -0.097000003 1.455
0.042957146 -0.091919057 1.455
0.47714767 -0.093304776 1.455
0.48153573 -0.096307151 1.455
0.047807146 -0.08522144 1.455
0.051271431 -0.083142862 1.455
0.47530001 -0.08452858 1.455
0.055428576 -0.073904775 1.455
0.46619388 -0.074234709 1.455
0.47252861 -0.078985721 1.455
0.059585717 -0.067900002 1.455
0.064574286 -0.064574286 1.455
0.45451429 -0.065128572 1.455
0.067900002 -0.059585717 1.455
0.073442869 -0.055428576 1.455
0.42680001 -0.051271431 1.455
0.43650004 -0.051271427 1.455
0.44481432 -0.055428576 1.455
0.45174289 -0.059585717 1.455
0.078985721 -0.048500001 1.455
0.083835721 -0.042957146 1.455
0.090071432 -0.040185716 1.455
0.41987145 -0.040185716 1.455
0.4256663 -0.043964937 1.455
0.43372858 -0.047114287 1.455
0.095614284 -0.033950001 1.455
0.41654578 -0.033534288 1.455
0.42264289 -0.03741429 1.455
0.098385721 -0.029100003 1.455
0.1057762 -0.024480954 1.455
0.1164 -0.020785715 1.455
0.39562145 -0.021478575 1.455
0.40379715 -0.026882861 1.455
0.41155717 -0.029100003 1.455
0.11778572 -0.018014288 1.455
0.12443715 -0.01635143 1.455
0.1362619 -0.012471429 1.455
0.14272858 -0.012471429 1.455
0.36860001 -0.012471429 1.455
0.37830001 -0.015242858 1.455
0.38615242 -0.016166668 1.455
0.39423573 -0.01732143 1.455
0.14827144 -0.0097000003 1.455
0.15520002 -0.0050809528 1.455
0.1649 -0.0013857144 1.455
0.33811432 -0.0013857144 1.455
0.34559718 -0.002494286 1.455
0.35494083 -0.0045530614 1.455
0.36259523 -0.0087761907 1.455
0.1649 0.0013857144 1.455
0.17432287 0.0030485715 1.455
0.18568572 0.006235715 1.455
0.19538574 0.0087761907 1.455
0.20554763 0.0097000003 1.455
0.22032858 0.0097000003 1.455
0.26605716 0.0097000003 1.455
0.27160001 0.0097000003 1.455
0.3076286 0.0097000003 1.455
0.31525001 0.0090071429 1.455
0.32460359 0.006928572 1.455
0.33488098 0.0032333338 1.455
0.34504285 0.0013857144 1.455
0.19815716 0.012471429 1.455
0.20508572 0.012471429 1.455
0.21409288 0.01455 1.455
0.2236543 0.014688572 1.455
0.23418573 0.015242858 1.455
0.24665716 0.015242858 1.455
0.25580287 0.014688572 1.455
0.26467144 0.013395239 1.455
0.27529526 0.013395239 1.455
0.28453335 0.014319048 1.455
0.29571146 0.014134286 1.455
0.30485716 0.013857143 1.455
0.31455716 0.012471429 1.455
0.21562572 -0.52113432 1.4670001
0.22424144 -0.52183288 1.4670001
0.23611717 -0.52392858 1.4670001
0.24505429 -0.52599663 1.4642727
0.26770574 -0.52285719 1.4640001
0.27453858 -0.52183288 1.4670001
0.28082573 -0.52113432 1.4670001
0.3087686 -0.52812004 1.4670001
0.3131898 -0.52610904 1.4652859
0.18582001 -0.51275146 1.4670001
0.20616953 -0.51426482 1.4660001
0.21405831 -0.51519495 1.4652002
0.22476175 -0.51358294 1.4622003
0.23443335 -0.51576227 1.4623334
0.24071716 -0.51622003 1.4610001
0.26669049 -0.51807529 1.4610001
0.27457526 -0.51529241 1.4610001
0.28538916 -0.51637888 1.4646001
0.29558575 -0.51519001 1.4640001
0.30522346 -0.51539832 1.4634001
0.31307143 -0.51733321 1.4610001
0.3275423 -0.51510686 1.4610001
0.33485714 -0.5139153 1.4650002
0.16521335 -0.50355905 1.4660001
0.17491373 -0.50745094 1.4646001
0.18023144 -0.50716287 1.4670001
0.19533336 -0.5083344 1.4650002
0.20314859 -0.50787145 1.4610001
0.21288858 -0.50787145 1.4610001
0.33811715 -0.50787145 1.4610001
0.34563717 -0.50773203 1.4622
0.35578576 -0.5074029 1.4650002
0.36458385 -0.50392479 1.4630002
0.37583145 -0.5043686 1.4670001
0.38561144 -0.50297147 1.4670001
0.12714002 -0.49039719 1.4670001
0.13738573 -0.49319148 1.4670001
0.14530286 -0.49319145 1.4670001
0.15590668 -0.4947181 1.4660001
0.1632524 -0.49595526 1.4623336
0.37707713 -0.49813148 1.4610001
0.38562503 -0.49560362 1.4617501
0.39587811 -0.49374714 1.4645003
0.40377432 -0.49598575 1.4670001
0.12666655 -0.48332945 1.4661429
0.13472614 -0.48498413 1.4627144
0.14470857 -0.48839146 1.4610001
0.15166572 -0.48839146 1.4610001
0.3882086 -0.48839146 1.4610001
0.39600059 -0.48672175 1.4610001
0.4056794 -0.48273772 1.4658
0.42054003 -0.48201433 1.4670001
0.10664857 -0.47176862 1.4670001
0.11426786 -0.47381502 1.4632502
0.12493048 -0.47791335 1.4630002
0.40768859 -0.47726002 1.4610001
0.41495144 -0.47922003 1.4670001
0.42403147 -0.47605813 1.4630002
0.098265715 -0.46338573 1.4670001
0.1057369 -0.46487874 1.4626366
0.11270572 -0.46891147 1.4610001
0.44386575 -0.46056288 1.4610001
0.085747145 -0.45314288 1.4640001
0.093856581 -0.45759946 1.4622
0.10157429 -0.45778003 1.4610001
0.4466486 -0.45430142 1.4610001
0.45407146 -0.45127717 1.4670001
0.068460003 -0.44010001 1.4670001
0.075458735 -0.44394699 1.4643335
0.44943145 -0.44943145 1.4610001
0.45670858 -0.44415143 1.4650002
0.064827345 -0.43425757 1.4661429
0.072354294 -0.43551716 1.4610001
0.45638859 -0.4369086 1.4610001
0.4636867 -0.43391907 1.4650002
0.47363147 -0.43171716 1.4670001
0.48143432 -0.43273431 1.4610001
0.048900004 -0.42054003 1.4670001
0.055960324 -0.42399782 1.465
0.064089529 -0.42821717 1.4630002
0.070962861 -0.42995146 1.4610001
0.46612859 -0.4280962 1.4610001
0.47550803 -0.42483607 1.4616002
0.48171908 -0.42538768 1.4623336
0.046818372 -0.41382489 1.4644288
0.054265715 -0.41603714 1.4610002
0.47447717 -0.41882002 1.4610001
0.48390576 -0.41389593 1.4618572
0.4913286 -0.41402003 1.4670001
0.03772286 -0.40098003 1.4670001
0.044240784 -0.40530574 1.4642727
0.48769575 -0.40560147 1.4610001
0.49357811 -0.40574098 1.4640001
0.035283677 -0.39413267 1.4652859
0.041464575 -0.39544404 1.4610001
0.49673998 -0.39605123 1.4610003
0.50392479 -0.3924543 1.4630002
0.02686643 -0.3855679 1.4655001
0.033879999 -0.38661909 1.462
0.50555241 -0.38588956 1.4610001
0.51275146 -0.38142002 1.4670001
0.02455187 -0.3756451 1.4637694
0.032002859 -0.37986001 1.4610001
0.50731486 -0.3765206 1.4610001
0.5139153 -0.37392381 1.4650002
0.017206667 -0.36229813 1.4650002
0.022859186 -0.36515063 1.4610002
0.50787145 -0.36872861 1.4610001
0.51343721 -0.36455435 1.4610002
0.52113432 -0.3646543 1.4670001
0.0097800009 -0.35208005 1.4670001
0.015329842 -0.35453179 1.4636668
0.020871431 -0.35759717 1.4610001
0.51701516 -0.35521188 1.4610002
0.52440858 -0.35309142 1.4625001
0.0097800009 -0.34509432 1.4670001
0.014127756 -0.34488291 1.4627143
0.51622003 -0.34924859 1.4610001
0.52317715 -0.34924859 1.4610001
0.0083828578 -0.33531427 1.4670001
0.012522858 -0.3353343 1.4610001
0.005953507 -0.3254351 1.464273
-0.001397143 -0.31435716 1.4670001
0.003923377 -0.31531197 1.463182
0.5347724 -0.31214383 1.4610001
-0.0029930614 -0.30499879 1.4661429
0.0025045718 -0.30527943 1.4610001
0.53570002 -0.30472288 1.4610001
-0.0039097145 -0.29487148 1.4646001
0.0013914286 -0.29915717 1.4610001
0.5406943 -0.29340002 1.4670001
-0.0056934063 -0.28498 1.4651541
0.5364334 -0.28284287 1.4630002
0.5406943 -0.28548285 1.4670001
-0.01326 -0.27426004 1.4655001
-0.0051808162 -0.27530941 1.4631431
0.53555435 -0.27509144 1.4625001
0.5406943 -0.27663431 1.4670001
-0.013945716 -0.2649143 1.4640001
-0.005573215 -0.26457608 1.4621254
0.53570002 -0.26854575 1.4610001
0.5406943 -0.26545715 1.4670001
-0.014148981 -0.25443062 1.4644287
-0.0064005717 -0.25490975 1.4610002
0.5406943 -0.25428 1.4670001
-0.013742449 -0.24472369 1.4635715
-0.0078847632 -0.24535526 1.4610002
0.53570002 -0.2476743 1.4610001
0.5406943 -0.24589716 1.4670001
-0.013122857 -0.23536289 1.4658
-0.0090442859 -0.23445572 1.4610001
0.54302287 -0.23518573 1.4670001
-0.012574286 -0.2277343 1.4670001
-0.007525715 -0.22568746 1.4628001
0.53570002 -0.22123715 1.4610001
0.5406943 -0.22214574 1.4670001
0.55746001 -0.22494002 1.4670001
-0.012574286 -0.21516001 1.4670001
-0.0075297146 -0.21518859 1.4634001
0.53525716 -0.21493858 1.4655001
0.5406943 -0.21935144 1.4670001
-0.0077734701 -0.20462082 1.4644287
0.5329172 -0.20454001 1.4610001
-0.006547913 -0.19491012 1.464231
0.53435373 -0.19456345 1.4634001
-0.0058657145 -0.18449888 1.4654003
0.0023190477 -0.18320477 1.4610001
0.5335893 -0.18518285 1.4647502
0.5406943 -0.18861429 1.4670001
-0.0031421431 -0.17550787 1.4655001
0.0036177144 -0.17476344 1.4610002
0.53226489 -0.1750298 1.4635715
-0.0019560002 -0.16570115 1.4670001
0.0049706125 -0.16393431 1.462286
0.52667147 -0.16237202 1.4622
0.53158575 -0.16602953 1.4650002
-0.002794286 -0.15787715 1.4670001
0.0055747624 -0.15481667 1.4645001
0.51900291 -0.15166572 1.4610001
0.52414578 -0.15487145 1.4650002
0.006175919 -0.14513309 1.465286
0.012522858 -0.14192572 1.4610001
0.51703721 -0.14434096 1.462
0.52113432 -0.14390573 1.4670001
0.007778368 -0.13584124 1.4661429
0.013914286 -0.13496858 1.4610001
0.51298386 -0.13533811 1.4650002
0.0083828578 -0.12853715 1.4670001
0.015585193 -0.12584029 1.4637275
0.023306429 -0.12348929 1.4610002
0.50759029 -0.12515144 1.4634001
0.017445715 -0.11654001 1.4655001
0.023410287 -0.11511944 1.4634001
0.49952289 -0.11270572 1.4610001
0.50507373 -0.11475029 1.4658
0.024699481 -0.10552494 1.463182
0.49612859 -0.10447633 1.4627144
0.50157434 -0.10618286 1.4670001
0.027942859 -0.095005721 1.4670001
0.034212384 -0.093660012 1.4630002
0.041742861 -0.090442866 1.4610001
0.48607242 -0.094153345 1.4610001
0.49207371 -0.094726294 1.4670001
0.029340003 -0.088020004 1.4670001
0.035277862 -0.085575007 1.4670001
0.042807143 -0.084571436 1.4617501
0.48335528 -0.08505144 1.4640001
0.03772286 -0.078240007 1.4670001
0.044636436 -0.075326435 1.4647504
0.052178573 -0.073050007 1.4610001
0.46891147 -0.070962861 1.4610001
0.4753136 -0.074515723 1.4625002
0.48201433 -0.078240007 1.4670001
0.047782291 -0.066224575 1.4670001
0.055186532 -0.064152658 1.4644289
0.061345719 -0.061345719 1.4640001
0.45778003 -0.062614292 1.4610001
0.46428925 -0.065173656 1.4630002
0.47223431 -0.067062862 1.4670001
0.056165148 -0.055047434 1.4670001
0.064132661 -0.055171434 1.4640003
0.071890481 -0.05241048 1.4610001
0.44850382 -0.05241048 1.4610001
0.45566577 -0.055983271 1.4644287
0.066597141 -0.047037143 1.4670001
0.075266123 -0.044601638 1.4635717
0.083485723 -0.040351432 1.4610001
0.43631226 -0.042736739 1.4610002
0.44447464 -0.045048576 1.4630002
0.45197573 -0.04680429 1.4670001
0.078519426 -0.035487432 1.4670001
0.085030802 -0.034845397 1.4636668
0.091556005 -0.034229144 1.4610001
0.4264729 -0.034437861 1.4610002
0.43408668 -0.034853335 1.4640001
0.44103146 -0.036791429 1.4670001
0.085784577 -0.028222287 1.4670001
0.095306195 -0.025568098 1.4645003
0.10482097 -0.02179905 1.4610001
0.11270572 -0.020871431 1.4610001
0.4061124 -0.022740955 1.462
0.41477674 -0.02648041 1.4635715
0.42429861 -0.028611429 1.4655001
0.098265715 -0.017231429 1.4670001
0.10566857 -0.016388571 1.4647501
0.11432971 -0.014776001 1.4640001
0.12439372 -0.013079429 1.4610001
0.13496858 -0.012522858 1.4610001
0.37707713 -0.012522858 1.4610001
0.38542572 -0.012522858 1.4610001
0.39609319 -0.013656572 1.4634001
0.40433317 -0.01592743 1.4670001
0.11540401 -0.0092211431 1.4670001
0.1256921 -0.006545275 1.4651541
0.13538428 -0.0055785719 1.4655004
0.14474572 -0.0052942862 1.4642004
0.15390858 -0.0020885717 1.4625001
0.35620576 -0.0013914286 1.4610001
0.36539555 -0.0041783676 1.4635715
0.37443429 -0.0076842862 1.4670001
0.38561147 -0.0083828578 1.4670001
0.39399433 -0.0097800009 1.4670001
0.14809716 0.001397143 1.4670001
0.15564172 0.0025148573 1.4670001
0.16452478 0.0062776194 1.4640002
0.17509174 0.0078968266 1.4630002
0.18506002 0.0090442859 1.4610001
0.19201715 0.0097400006 1.4610001
0.32698572 0.0097400006 1.4610001
0.33616859 0.0086348578 1.4622
0.34539589 0.0069768257 1.4643335
0.35498518 0.004465715 1.4640001
0.36288717 0.0027928574 1.4655001
0.1690543 0.012574286 1.4670001
0.17534144 0.013272857 1.4670001
0.18442287 0.013971429 1.4670001
0.19528003 0.015346858 1.4646002
0.20496 0.016734287 1.4640001
0.21414916 0.017591428 1.4658
0.22610144 0.018144287 1.4655001
0.23515145 0.018088572 1.4610001
0.24489145 0.018088572 1.4610001
0.25463143 0.018088572 1.4610001
0.26584288 0.017198095 1.4640001
0.2742303 0.017020002 1.4646001
0.2844286 0.018125715 1.4640001
0.29280287 0.018125715 1.4640001
0.30534285 0.016734287 1.4640001
0.31511429 0.015337144 1.4640001
0.32502347 0.013092001 1.4622
0.3353143 0.012574286 1.4670001
0.22354287 0.020957144 1.4670001
0.23444057 0.021515999 1.4670001
0.24526097 0.021874286 1.4660001
0.25487882 0.022553878 1.4670001
0.26266289 0.022354286 1.4670001
0.27803144 0.020957144 1.4670001
0.28082573 0.020957144 1.4670001
0.23568001 -0.53168291 1.473
0.20678115 -0.5227046 1.473
0.21510477 -0.52653915 1.473
0.22361544 -0.52719378 1.473
0.23483829 -0.52719378 1.473
0.27776572 -0.52607149 1.473
0.28478003 -0.52466857 1.473
0.29413238 -0.52279812 1.473
0.30385888 -0.5227046 1.473
0.31003144 -0.52326572 1.473
0.32967144 -0.52607149 1.473
0.33528289 -0.52139527 1.473
0.34089431 -0.52046001 1.473
0.35632575 -0.52326572 1.473
0.36053431 -0.52186286 1.473
0.16834287 -0.51484865 1.473
0.17255144 -0.51204288 1.473
0.18447572 -0.51274431 1.473
0.19686763 -0.51578385 1.473
0.20154381 -0.51671904 1.473
0.34510288 -0.51555002 1.473
0.35492289 -0.51344573 1.473
0.36193717 -0.51204288 1.473
0.12766001 -0.50362575 1.473
0.13467428 -0.50082004 1.473
0.1473 -0.50082004 1.473
0.15524954 -0.50269055 1.473
0.16413429 -0.50783432 1.473
0.36754858 -0.50923717 1.473
0.39607334 -0.50269049 1.473
0.13327144 -0.49560937 1.4730002
0.1444943 -0.49801433 1.473
0.15150858 -0.49801433 1.473
0.40682858 -0.49380574 1.473
0.41103718 -0.49240288 1.473
0.11737239 -0.4830505 1.473
0.1248543 -0.48819432 1.473
0.13046572 -0.48959717 1.473
0.40682858 -0.48959717 1.473
0.41489503 -0.48644072 1.473
0.42506576 -0.4825829 1.473
0.099602863 -0.47276288 1.473
0.1052143 -0.47556862 1.473
0.43909431 -0.47556859 1.473
0.088380009 -0.46154004 1.473
0.096797146 -0.46715149 1.473
0.077157147 -0.45172003 1.473
0.082768574 -0.45592859 1.473
0.067337148 -0.44330287 1.473
0.07154572 -0.44751146 1.473
0.4629429 -0.44470572 1.473
0.055646669 -0.43254766 1.473
0.061725721 -0.43769145 1.473
0.46808672 -0.43722382 1.473
0.47416574 -0.4362886 1.473
0.48118004 -0.4362886 1.473
0.047697149 -0.4236629 1.473
0.051905718 -0.42787147 1.473
0.48679146 -0.42226002 1.473
0.037877146 -0.41103718 1.473
0.042085715 -0.41524574 1.473
0.49661148 -0.41384289 1.473
0.036941908 -0.4054257 1.473
0.028524764 -0.39513811 1.473
0.033668574 -0.39981431 1.473
0.021978097 -0.38578573 1.473
0.51625144 -0.38298002 1.473
0.018237144 -0.37175718 1.473
0.52186286 -0.37316003 1.473
0.0098200003 -0.36053431 1.473
0.014870286 -0.36558458 1.473
0.52607149 -0.36334002 1.473
0.0065466673 -0.35492289 1.473
0.5288772 -0.3577286 1.473
0.53168291 -0.3577286 1.473
0.005611429 -0.34510285 1.473
0.0028057145 -0.33528289 1.473
-0.0025251429 -0.32349887 1.473
0.0014028572 -0.32967144 1.473
-0.0049100006 -0.31424001 1.473
-0.0070142862 -0.30442002 1.473
-0.012625714 -0.29319715 1.473
0.54571146 -0.29039145 1.473
-0.013327144 -0.2840786 1.473
0.5443086 -0.28618288 1.473
-0.017114859 -0.2752406 1.473
0.54501003 -0.27355716 1.473
-0.018237144 -0.26514003 1.473
0.54683375 -0.26457888 1.473
-0.018237144 -0.25532001 1.473
0.54711431 -0.2525143 1.473
0.55132288 -0.2525143 1.473
-0.021042859 -0.24690288 1.473
-0.018237144 -0.24550003 1.473
0.54683375 -0.24550001 1.473
0.55132288 -0.24550001 1.473
-0.016132858 -0.23568001 1.473
0.54691392 -0.23547959 1.4730002
0.55225807 -0.23708288 1.473
-0.01449619 -0.22445716 1.473
0.54384094 -0.2277305 1.473
0.55974007 -0.2230543 1.473
-0.015431429 -0.21744287 1.473
0.54150289 -0.21744287 1.473
-0.012625715 -0.20481715 1.473
0.54010004 -0.20622002 1.473
-0.012625714 -0.19499715 1.473
0.54290575 -0.19499715 1.473
-0.012625715 -0.18517715 1.473
0.54010004 -0.18377429 1.473
-0.0070142862 -0.17395429 1.473
0.54010004 -0.17395429 1.473
-0.005811837 -0.16493592 1.4730002
0.53589147 -0.16553715 1.473
-0.0032733337 -0.15431429 1.473
0.0014028572 -0.15010573 1.473
0.52817577 -0.15221001 1.473
