# .PCD v0.7 - Point Cloud Data file format
VERSION 0.7
FIELDS x y z
SIZE 4 4 4
TYPE F F F
COUNT 1 1 1
WIDTH 1188
HEIGHT 1
VIEWPOINT 0 0 0 1 0 0 0
POINTS 1188
DATA ascii
-0.27186 -0.33358669 1.3790001
-0.27186 -0.32964668 1.3790001
-0.31454334 -0.22479892 1.3789998
-0.30576789 -0.2250576 1.3789998
-0.32176667 -0.21407335 1.3790001
-0.3152 -0.2153867 1.3789998
-0.30469337 -0.21538672 1.3789998
-0.2961567 -0.21210335 1.3790001
-0.32176667 -0.20750669 1.3790001
-0.3152 -0.20488006 1.3789998
-0.30469337 -0.20488004 1.3789998
-0.29418668 -0.20488004 1.3789998
-0.28630668 -0.20225334 1.3790001
-0.31467468 -0.19621202 1.3789999
-0.30431813 -0.19493619 1.3789998
-0.29454491 -0.19544791 1.3789998
-0.28649431 -0.19456097 1.3789999
-0.31126001 -0.18386668 1.3790001
-0.30469334 -0.18518001 1.3789998
-0.29506227 -0.18693113 1.3790001
-0.28762001 -0.18649334 1.3790001
-0.3235178 -0.1737978 1.3790001
-0.31454334 -0.17489223 1.3789998
-0.30469334 -0.17598666 1.3789998
-0.29456192 -0.17542382 1.3789998
-0.28762001 -0.17467333 1.3790001
-0.33227336 -0.16154002 1.3790001
-0.3246122 -0.16482335 1.3789998
-0.31520003 -0.16548002 1.3789998
-0.30469337 -0.16548002 1.3789998
-0.29509592 -0.16578309 1.3789998
-0.28762001 -0.16942 1.3790001
-0.33227336 -0.15628667 1.3790001
-0.32570666 -0.15497337 1.3789998
-0.31520003 -0.15497336 1.3789998
-0.30469337 -0.15497337 1.3789998
-0.2963756 -0.15716223 1.3790001
-0.3243933 -0.14530241 1.3789998
-0.31520003 -0.14446667 1.3789998
-0.30469334 -0.14446667 1.3789998
-0.2961567 -0.14446667 1.3789999
-0.32308 -0.13396001 1.3789999
-0.31520003 -0.13396001 1.3789998
-0.30469334 -0.13396001 1.3789998
-0.29579189 -0.13293853 1.3789999
-0.32526889 -0.12564223 1.3790001
-0.3152 -0.12476669 1.3789998
-0.30469334 -0.1247667 1.3789998
-0.29418668 -0.12476669 1.3789998
-0.27186 -0.12214001 1.3790001
-0.32675734 -0.11504801 1.3789999
-0.3152 -0.11557335 1.3789998
-0.30469334 -0.11557333 1.3789998
-0.29474956 -0.11594858 1.3789998
-0.28368002 -0.11754334 1.3790001
-0.2774052 -0.11601111 1.3789999
-0.32544401 -0.10515422 1.3789998
-0.31520003 -0.10506666 1.3789998
-0.30469334 -0.10506666 1.3789998
-0.29444933 -0.104804 1.3789998
-0.28565001 -0.10178334 1.3790001
-0.27711335 -0.10900667 1.3790001
-0.3246122 -0.094997793 1.3789998
-0.31520003 -0.094560012 1.3789998
-0.30495602 -0.094822682 1.3789998
-0.29450881 -0.09430892 1.3787057
-0.28586894 -0.094122238 1.3789999
-0.27711335 -0.090620004 1.3790001
-0.32308 -0.084053338 1.3789999
-0.3152 -0.084053345 1.3789998
-0.30495602 -0.083790682 1.3789998
-0.29450881 -0.08426635 1.3787057
-0.28709468 -0.083265342 1.3790001
-0.27612835 -0.082411677 1.3789999
-0.32308003 -0.074860007 1.3790001
-0.3152 -0.074860007 1.3789998
-0.30469334 -0.074859999 1.3789998
-0.29418671 -0.074860007 1.3789998
-0.28499338 -0.074860007 1.3789999
-0.27580002 -0.074859999 1.3789998
-0.3246122 -0.065010004 1.3789998
-0.31520003 -0.065666676 1.3789998
-0.30469334 -0.065666676 1.3789998
-0.29444936 -0.065929338 1.3789998
-0.28762001 -0.066980004 1.3790001
-0.27186 -0.064353339 1.3790001
-0.33227336 -0.055160005 1.3790001
-0.32570666 -0.055160005 1.3789998
-0.3152 -0.055159997 1.3789998
-0.30469337 -0.055159997 1.3789998
-0.29418668 -0.055160001 1.3789998
-0.28499335 -0.052270669 1.3790001
-0.27579999 -0.051220004 1.3790001
-0.33358669 -0.044215556 1.3790001
-0.32570666 -0.044653341 1.3789998
-0.3152 -0.044653334 1.3789998
-0.30469334 -0.044653334 1.3789998
-0.29418668 -0.044653341 1.3789998
-0.28499338 -0.044653337 1.3789998
-0.2763629 -0.045028575 1.3789998
-0.33279869 -0.033358671 1.3790001
-0.32570666 -0.034146667 1.3789998
-0.31520003 -0.03414667 1.3789998
-0.30462459 -0.034139819 1.3786874
-0.29387856 -0.034346476 1.3763335
-0.28507808 -0.033809897 1.3774617
-0.27663124 -0.033835165 1.3786153
-0.33227336 -0.024953336 1.3790001
-0.32570666 -0.024953337 1.3789998
-0.3152 -0.024953337 1.3789998
-0.30539343 -0.02490201 1.3762221
-0.29573715 -0.024862861 1.3740002
-0.2852686 -0.024862861 1.3740002
-0.27560756 -0.024665199 1.3762729
-0.33424336 -0.014446667 1.3789999
-0.32526323 -0.015739763 1.377125
-0.3152 -0.015759999 1.3789998
-0.30525619 -0.015384763 1.3789998
-0.29513404 -0.015805017 1.3756669
-0.28542086 -0.015984889 1.376
-0.27692983 -0.01658277 1.3780907
-0.34015337 -0.0013133334 1.3790001
-0.33490005 -0.0052533336 1.3789998
-0.32548553 -0.0052494644 1.3780624
-0.31427059 -0.0052399402 1.3749377
-0.30469334 -0.0052533336 1.3789998
-0.29418668 -0.0052533345 1.3789998
-0.28499338 -0.0052533336 1.3789998
-0.27842668 -0.0052533336 1.3789999
-0.3337743 0.0046904762 1.3789999
-0.32548791 0.00525006 1.3780624
-0.31405717 0.0052342862 1.3740003
-0.30469337 0.0052533336 1.3789998
-0.29418668 0.0052533336 1.3789998
-0.28499338 0.0052533336 1.3789998
-0.27670926 0.0051523084 1.3789998
-0.33339909 0.015572383 1.3789999
-0.32556081 0.01575405 1.3783749
-0.3146286 0.015736192 1.3765001
-0.30469337 0.015760001 1.3789998
-0.29550001 0.015234667 1.3789999
-0.28466505 0.014118335 1.3789999
-0.27632535 0.013921335 1.3789999
-0.33227336 0.024953336 1.3790001
-0.32570666 0.024953336 1.3789998
-0.3152 0.024953334 1.3789998
-0.30469334 0.024953337 1.3789998
-0.29471204 0.02547867 1.3789999
-0.28499335 0.026266668 1.3790001
-0.32415453 0.033788487 1.3789998
-0.3152 0.034146667 1.3789998
-0.30469334 0.03414667 1.3789998
-0.29418671 0.03414667 1.3789998
-0.28696334 0.035460003 1.3790001
-0.32264224 0.041588891 1.3790001
-0.31493732 0.042814668 1.3789999
-0.30521867 0.042814668 1.3789999
-0.29550004 0.042214286 1.3789999
-0.28762001 0.040713336 1.3790001
-0.27515334 -0.33371907 1.3850001
-0.31349364 -0.27128413 1.3850001
-0.3231667 -0.26424921 1.3850001
-0.31487554 -0.26437485 1.3850001
-0.30997622 -0.26249048 1.3850001
-0.3205286 -0.25589526 1.3850001
-0.31525236 -0.25589526 1.3850001
-0.30997622 -0.25589526 1.3850001
-0.32263908 -0.24455145 1.3850001
-0.31525236 -0.24546279 1.3850001
-0.30685842 -0.24498314 1.3850001
-0.29678574 -0.24373071 1.3850001
-0.27831906 -0.24138573 1.3850001
-0.32422191 -0.23452665 1.3850001
-0.31549218 -0.2351502 1.3850001
-0.30575523 -0.23505427 1.3850001
-0.29603201 -0.23516734 1.3850001
-0.28227621 -0.23083335 1.3850001
-0.27743971 -0.23479049 1.3850001
-0.32539892 -0.22454248 1.3850001
-0.30206192 -0.22555715 1.3850001
-0.29546672 -0.22423808 1.3850001
-0.28506088 -0.22497092 1.3850001
-0.27831906 -0.22555715 1.3850001
-0.33108097 -0.21368572 1.3850001
-0.32712379 -0.21500479 1.3850001
-0.2944774 -0.21599407 1.3850001
-0.28755239 -0.21500479 1.3850001
-0.33196032 -0.20489208 1.3850001
-0.32633236 -0.20524383 1.3850001
-0.28547961 -0.20633675 1.3850001
-0.32436579 -0.19485931 1.3850001
-0.31591192 -0.19192144 1.3850001
-0.30865717 -0.19126192 1.3850001
-0.29467526 -0.19284478 1.3850001
-0.28271592 -0.19507249 1.3850001
-0.33635718 -0.18070954 1.3850001
-0.32392043 -0.18447825 1.3850001
-0.31613174 -0.18510635 1.3850001
-0.29414764 -0.18334763 1.3850001
-0.28503424 -0.18478657 1.3850001
-0.33398286 -0.17437811 1.3850001
-0.32580477 -0.17543334 1.3850001
-0.28491434 -0.1741143 1.3850001
-0.27304289 -0.17015715 1.3850001
-0.33409593 -0.16563472 1.3850001
-0.29150954 -0.16488098 1.3850001
-0.2862334 -0.16488098 1.3850001
-0.27304289 -0.16620001 1.3850001
-0.33635715 -0.15476827 1.3850001
-0.29414767 -0.15432858 1.3850001
-0.2862334 -0.15696669 1.3850001
-0.2741735 -0.15621294 1.3850001
-0.33342591 -0.1452418 1.3850001
-0.32844287 -0.14245716 1.3850001
-0.29348812 -0.14509524 1.3850001
-0.28711271 -0.14509524 1.3850001
-0.27568096 -0.14509524 1.3850001
-0.33258843 -0.13322382 1.3850001
-0.32844287 -0.13454287 1.3850001
-0.29339388 -0.1358619 1.3850001
-0.28667304 -0.13322382 1.3850001
-0.27436191 -0.13058573 1.3850001
-0.33371904 -0.12399048 1.3850001
-0.32609785 -0.1235508 1.3850001
-0.28527406 -0.12435022 1.3850001
-0.27535123 -0.12366072 1.3850001
-0.3350381 -0.11475714 1.3850001
-0.32514524 -0.11541668 1.3850001
-0.29150954 -0.1134381 1.3850001
-0.2862334 -0.11409763 1.3850001
-0.27370238 -0.11409763 1.3850001
-0.33459842 -0.10537726 1.3850001
-0.29150954 -0.10948096 1.3850001
-0.28425482 -0.10662303 1.3850001
-0.27544117 -0.10516407 1.3850001
-0.34163335 -0.091014288 1.3850001
-0.33371904 -0.094531745 1.3850001
-0.32844287 -0.09365239 1.3850001
-0.2820878 -0.095536731 1.3850001
-0.27544117 -0.09533117 1.3850001
-0.34163335 -0.084419057 1.3850001
-0.33395886 -0.083579659 1.3850001
-0.32844287 -0.084419057 1.3850001
-0.28359529 -0.08521048 1.3850001
-0.2740981 -0.08626572 1.3850001
-0.33467835 -0.075425543 1.3850001
-0.32844287 -0.075185716 1.3850001
-0.27040479 -0.075185716 1.3850001
-0.33437857 -0.065952383 1.3850001
-0.32844287 -0.069909528 1.3850001
-0.29150954 -0.061995242 1.3850001
-0.28465053 -0.065864444 1.3850001
-0.27592084 -0.066072293 1.3850001
-0.34163335 -0.055400003 1.3850001
-0.3376762 -0.055399999 1.3850001
-0.2846505 -0.057246666 1.3850001
-0.27568099 -0.05671905 1.3850001
-0.34216097 -0.044583812 1.3850001
-0.3376762 -0.045287307 1.3850001
-0.27172384 -0.044847619 1.3850001
-0.34163335 -0.032976191 1.3850001
-0.33786464 -0.034860548 1.3850001
-0.27304289 -0.035614286 1.3850001
-0.34163335 -0.027700001 1.3850001
-0.3370167 -0.025721429 1.3850001
-0.27304289 -0.027700001 1.3850001
-0.3429524 -0.013190476 1.3850001
-0.33767623 -0.018466668 1.3850001
-0.2740981 -0.013981906 1.3850001
-0.34314084 -0.0058414969 1.3850001
-0.27436194 -0.005276191 1.3850001
-0.3429524 0.0052761906 1.3850001
-0.33794004 0.0060676197 1.3850001
-0.27304289 0.0057158731 1.3850001
-0.34251273 0.014949207 1.3850001
-0.33846763 0.016092381 1.3850001
-0.29326826 0.016707936 1.3850001
-0.28570575 0.019258097 1.3850001
-0.27515334 0.018730476 1.3850001
-0.34163335 0.022423811 1.3850001
-0.3376762 0.025061905 1.3850001
-0.29282859 0.022423811 1.3850001
-0.2846505 0.024798095 1.3850001
-0.27568099 0.025061905 1.3850001
-0.3334792 0.033935498 1.3850001
-0.32844287 0.038252383 1.3850001
-0.28381515 0.033855554 1.3850001
-0.27541718 0.034295239 1.3850001
-0.33240002 0.040890478 1.3850001
-0.3231667 0.045507144 1.3850001
-0.31525239 0.048145242 1.3850001
-0.30513969 0.047925398 1.3850001
-0.29490137 0.046166666 1.3850001
-0.28585652 0.043151706 1.3850001
-0.27568096 0.040890478 1.3850001
-0.31525239 0.051442862 1.3850001
-0.30997622 0.051442862 1.3850001
-0.28052953 -0.40417528 1.396
-0.27654099 -0.40284577 1.396
-0.29648381 -0.39752764 1.396
-0.27787051 -0.39752764 1.396
-0.28052953 -0.33636954 1.396
-0.26873335 -0.33624762 1.3900001
-0.33371049 -0.29382479 1.396
-0.33424228 -0.28292269 1.396
-0.32409704 -0.28359765 1.396
-0.31425977 -0.28505743 1.3937501
-0.3049143 -0.28503242 1.3920002
-0.29488042 -0.28444642 1.3947144
-0.28539282 -0.28501621 1.3947142
-0.27676791 -0.28398043 1.3942858
-0.34168765 -0.2725524 1.396
-0.33540261 -0.27545318 1.396
-0.32535157 -0.27489093 1.3943636
-0.31446496 -0.27571341 1.3900002
-0.3044762 -0.27535239 1.39
-0.29610801 -0.27514839 1.393
-0.28563741 -0.27443588 1.3900001
-0.27598163 -0.27503851 1.3912858
-0.34366804 -0.2652604 1.3953999
-0.33540955 -0.26514292 1.3920002
-0.3263191 -0.26498255 1.3900002
-0.31440479 -0.26807144 1.3900001
-0.3044762 -0.26476192 1.39
-0.29535756 -0.26596057 1.3942858
-0.28595418 -0.26505616 1.3947999
-0.27595431 -0.26586366 1.3944
-0.34430301 -0.25482786 1.3941538
-0.33540952 -0.25453719 1.3920002
-0.32722166 -0.25453252 1.3900002
-0.3044762 -0.25473884 1.3900001
-0.29531479 -0.25426432 1.3905002
-0.28617325 -0.2543804 1.391125
-0.27634138 -0.2541863 1.392143
-0.26882973 -0.25340727 1.396
-0.34475577 -0.24493919 1.396
-0.33577147 -0.24479583 1.3924001
-0.32609844 -0.24578731 1.3900002
-0.31639048 -0.24490477 1.3900001
-0.30580002 -0.24490477 1.39
-0.29454762 -0.24689049 1.3900001
-0.28594288 -0.24490476 1.3900002
-0.27508098 -0.24503459 1.3920001
-0.26922858 -0.24463241 1.396
-0.34541032 -0.23373032 1.396
-0.33516669 -0.23492317 1.3910002
-0.32962859 -0.23960954 1.3900001
-0.29256192 -0.2329905 1.3900001
-0.28632113 -0.23620541 1.3900001
-0.27396762 -0.23498133 1.3924001
-0.26960334 -0.23639667 1.3945
-0.35232383 -0.22734858 1.396
-0.34567621 -0.22468954 1.396
-0.33534339 -0.22512451 1.3927274
-0.28575376 -0.22410205 1.3900002
-0.27618796 -0.22492824 1.3920002
-0.35232386 -0.2167124 1.396
-0.34567621 -0.21538287 1.396
-0.33613014 -0.21510541 1.3913336
-0.28329527 -0.21445715 1.3900002
-0.27717 -0.21484144 1.3925
-0.35232383 -0.20474668 1.396
-0.34574059 -0.20512748 1.3947144
-0.33690953 -0.20585239 1.3900001
-0.28285399 -0.20607303 1.39
-0.2772032 -0.20558542 1.3926668
-0.35232383 -0.19411048 1.396
-0.3451654 -0.19487743 1.3942353
-0.33492383 -0.19592382 1.3900002
-0.32874605 -0.19548255 1.39
-0.27585143 -0.19529529 1.3911999
-0.26989335 -0.19278097 1.396
-0.35365334 -0.18480383 1.396
-0.34480366 -0.18490651 1.3936923
-0.33468312 -0.1856944 1.3900002
-0.32962859 -0.18665716 1.3900001
-0.28285399 -0.183127 1.39
-0.27585143 -0.18522745 1.3911999
-0.26922858 -0.18413906 1.396
-0.35232383 -0.17549716 1.396
-0.34493905 -0.17512001 1.393
-0.33360004 -0.17341906 1.3900001
-0.28197145 -0.17474286 1.3900001
-0.27575302 -0.17520876 1.3916
-0.26875377 -0.17530723 1.396
-0.35232383 -0.16486096 1.396
-0.34484583 -0.16446346 1.3926251
-0.28197145 -0.16415238 1.3900001
-0.27586588 -0.16455159 1.3915004
-0.26837391 -0.16391131 1.396
-0.35232383 -0.15422478 1.396
-0.34547761 -0.15472019 1.3925
-0.28461906 -0.15356193 1.3900002
-0.27516788 -0.15397359 1.3907502
-0.26655751 -0.1539682 1.3946154
-0.3529886 -0.14425334 1.396
-0.3442263 -0.14547886 1.3911999
-0.33757144 -0.14297143 1.3900001
-0.28461909 -0.14561905 1.3900002
-0.27572453 -0.14545728 1.3913847
-0.2672343 -0.1449181 1.396
-0.35321018 -0.13472509 1.396
-0.3448444 -0.13528608 1.392625
-0.33651239 -0.13688192 1.3900001
-0.28488383 -0.13582286 1.3900002
-0.2756871 -0.13576247 1.3917143
-0.26812065 -0.13605461 1.396
-0.35365334 -0.12497525 1.396
-0.3445662 -0.1245724 1.3915
-0.33757144 -0.12708572 1.3900001
-0.28461906 -0.12840953 1.3900001
-0.27378252 -0.1258543 1.3910002
-0.26858807 -0.12546912 1.3951428
-0.35285562 -0.11513676 1.396
-0.34531769 -0.11465947 1.393
-0.27138096 -0.11517143 1.39
-0.26813373 -0.11377487 1.3924
-0.35232386 -0.10503238 1.396
-0.34455964 -0.10556233 1.393
-0.27138096 -0.10590477 1.3900001
-0.26862034 -0.10576255 1.3940001
-0.35379645 -0.094679289 1.39525
-0.34488994 -0.095972657 1.3912858
-0.33757147 -0.093990482 1.39
-0.27138096 -0.095314287 1.3900001
-0.26622599 -0.095637955 1.3947144
-0.35289621 -0.084906667 1.3930001
-0.3455143 -0.085253336 1.3900002
-0.33757147 -0.086047627 1.39
-0.27138096 -0.084723815 1.3900001
-0.26611486 -0.084966742 1.3923078
-0.35327476 -0.074373335 1.3945
-0.34497255 -0.073799185 1.3908571
-0.27138096 -0.070161909 1.3900001
-0.26646477 -0.074240014 1.3920001
-0.35340098 -0.065101914 1.395
-0.34523258 -0.065235674 1.3927274
-0.27138096 -0.064866669 1.39
-0.26672 -0.065020956 1.3933334
-0.35399678 -0.055500381 1.3942001
-0.34683812 -0.055600006 1.3900002
-0.27138096 -0.055600002 1.3900001
-0.26586133 -0.055510104 1.3944
-0.35365334 -0.045203812 1.396
-0.34702724 -0.045198642 1.3900002
-0.27138096 -0.042361908 1.3900001
-0.26540154 -0.045117743 1.3933749
-0.35327476 -0.034531906 1.3945
-0.34639683 -0.03486032 1.3900002
-0.27138096 -0.034419049 1.3900001
-0.26704097 -0.03454477 1.395
-0.35357419 -0.025214424 1.3934287
-0.34472001 -0.024622859 1.3900002
-0.27138096 -0.025152383 1.39
-0.26766261 -0.025608165 1.3942858
-0.35409653 -0.015511112 1.396
-0.34636408 -0.017220238 1.3907502
-0.2719667 -0.015914286 1.3930001
-0.26856384 -0.01728381 1.396
-0.35346407 -0.0053173811 1.39525
-0.34816194 -0.0052952385 1.3900001
-0.2725524 -0.0053180954 1.396
-0.26989335 -0.0066476194 1.396
-0.35346341 0.0058878916 1.396
-0.34816194 0.0052952385 1.3900001
-0.27167383 0.0052966671 1.3915002
-0.26989335 0.0053180954 1.396
-0.35346341 0.015384491 1.396
-0.3472794 0.016768256 1.3900002
-0.27138096 0.015885714 1.3900001
-0.26862034 0.01504889 1.3940001
-0.35232386 0.025260955 1.396
-0.34640881 0.02552405 1.3922502
-0.27138096 0.025152383 1.39
-0.26882973 0.025792763 1.396
-0.35232383 0.034567621 1.396
-0.34465873 0.03446655 1.3918749
-0.33757144 0.03839048 1.3900001
-0.27378252 0.034440953 1.3910002
-0.269007 0.035010796 1.396
-0.35232383 0.041215241 1.396
-0.34518009 0.043616451 1.3954545
-0.33573353 0.046241213 1.3943636
-0.32765746 0.046368569 1.3910002
-0.29388574 0.048980955 1.3900001
-0.28404456 0.047209907 1.3924
-0.27543682 0.045246772 1.3926667
-0.26856381 0.041215241 1.396
-0.33304572 0.052516196 1.396
-0.32388255 0.055703457 1.3950769
-0.31441733 0.056468002 1.3918002
-0.30521443 0.055739652 1.393375
-0.2948131 0.056050889 1.3917143
-0.28577805 0.054216705 1.3936925
-0.27787051 0.051851433 1.396
-0.3217448 0.062487625 1.396
-0.31409669 0.063085243 1.3945
-0.30579048 0.064149529 1.396
-0.29759905 0.065098099 1.395
-0.29330733 -0.40279686 1.4020001
-0.28680915 -0.40511125 1.4020002
-0.27323943 -0.40330082 1.405
-0.26886144 -0.40128338 1.4045
-0.29454041 -0.39775401 1.4048573
-0.28464395 -0.39726907 1.4045002
-0.27538055 -0.39623404 1.4042728
-0.26902094 -0.39483178 1.4053334
-0.29614002 -0.38994002 1.4070001
-0.26934001 -0.38994002 1.4070001
-0.28262544 -0.34137586 1.4020001
-0.28440574 -0.33648002 1.4020001
-0.26934001 -0.33902001 1.4070001
-0.32446289 -0.30109623 1.4020001
-0.31682447 -0.30078575 1.4036666
-0.35510004 -0.29078001 1.4070001
-0.34262213 -0.29348534 1.4020001
-0.33514479 -0.2930848 1.4020001
-0.32579812 -0.29508761 1.4020003
-0.31539437 -0.29535231 1.4032502
-0.30534145 -0.29417953 1.4061667
-0.29492331 -0.29492736 1.4048573
-0.28510973 -0.29401767 1.4025557
-0.2757912 -0.2918593 1.40575
-0.26451603 -0.29131603 1.4070001
-0.25661004 -0.29145002 1.4070001
-0.35313386 -0.28491047 1.4045
-0.34475848 -0.286008 1.4020003
-0.33514479 -0.28974667 1.4020001
-0.32713336 -0.28974667 1.4020001
-0.31912193 -0.28974667 1.4020001
-0.27323702 -0.28545991 1.4034287
-0.26498821 -0.28428105 1.4066664
-0.25594002 -0.28408 1.4069999
-0.35285297 -0.27490517 1.404143
-0.34642014 -0.2760976 1.4020002
-0.27105334 -0.27505904 1.4020001
-0.26533476 -0.27481049 1.4054615
-0.25683334 -0.27559334 1.4070001
-0.35406309 -0.26494285 1.4050001
-0.34849715 -0.26838288 1.4020001
-0.27158743 -0.263576 1.4020001
-0.26484385 -0.26484859 1.4045
-0.25862002 -0.26532 1.4070001
-0.36046001 -0.25460002 1.4070001
-0.35527709 -0.25504237 1.4053334
-0.27372384 -0.25770098 1.4020001
-0.26379293 -0.25528213 1.4047272
-0.256275 -0.25393 1.4070001
-0.36046001 -0.24522001 1.4070001
-0.35396525 -0.24497077 1.4025003
-0.26457617 -0.24587056 1.4030715
-0.25593227 -0.2454927 1.4055001
-0.36314002 -0.23584001 1.4069999
-0.35517332 -0.23500192 1.4020002
-0.27105334 -0.23099621 1.4020001
-0.2644352 -0.23505342 1.4023128
-0.25531563 -0.23554245 1.4058462
-0.36534169 -0.22460909 1.4060909
-0.35704267 -0.22432002 1.4020002
-0.27238858 -0.22432001 1.4020002
-0.26490366 -0.22476856 1.4048126
-0.2555277 -0.22501697 1.4069998
-0.3645958 -0.21455866 1.4065832
-0.35695365 -0.21497335 1.4020001
-0.27238858 -0.21497335 1.4020001
-0.26449907 -0.2149156 1.4043077
-0.25594002 -0.21440001 1.4069999
-0.36269334 -0.20502 1.4070001
-0.3570427 -0.20482555 1.4020001
-0.27238858 -0.20562667 1.4020002
-0.26495501 -0.20560311 1.4036669
-0.25727999 -0.20502001 1.4070001
-0.37493205 -0.19430001 1.4070001
-0.36415741 -0.19546859 1.40575
-0.35784382 -0.19494477 1.4020002
-0.27238858 -0.19895048 1.4020001
-0.26437718 -0.19494477 1.4020003
-0.25683334 -0.19519335 1.4070001
-0.36449546 -0.18514392 1.4053334
-0.35864499 -0.18346173 1.4020001
-0.26380494 -0.18464437 1.4020003
-0.25524566 -0.18441004 1.4054614
-0.36314002 -0.17420001 1.4070001
-0.35784385 -0.17491621 1.4020001
-0.26366889 -0.17524658 1.4025002
-0.25459999 -0.17419998 1.4069998
-0.24700667 -0.17107333 1.4070001
-0.36113 -0.16549002 1.4070001
-0.35704267 -0.16637067 1.4020001
-0.2636582 -0.16608308 1.4020003
-0.25444683 -0.16472238 1.4061666
-0.24656002 -0.16482002 1.4070001
-0.36099601 -0.154636 1.4070001
-0.35650858 -0.15488763 1.4020001
-0.26151592 -0.15507838 1.4020002
-0.25431341 -0.1552677 1.4054374
-0.24611336 -0.15558891 1.4070001
-0.36260402 -0.145524 1.4070001
-0.35784385 -0.14376065 1.4020001
-0.26170668 -0.14420573 1.4020002
-0.25419971 -0.14449412 1.4048126
-0.24700667 -0.14472 1.4070001
-0.36343774 -0.13505144 1.404
-0.35851145 -0.13552669 1.4020001
-0.26304191 -0.13485907 1.4020002
-0.25444683 -0.13526064 1.4061666
-0.37654004 -0.12283334 1.4070001
-0.36510709 -0.12543179 1.4051819
-0.35917908 -0.12551239 1.4020001
-0.26345277 -0.12520427 1.4020003
-0.2555635 -0.12633048 1.4061667
-0.37520003 -0.11926001 1.4070001
-0.36502594 -0.11542515 1.4059999
-0.35803458 -0.11425824 1.4020002
-0.26387125 -0.11524089 1.4023573
-0.25517431 -0.11485714 1.4069998
-0.24790001 -0.11122001 1.4070001
-0.36341792 -0.10364459 1.406
-0.35784382 -0.10414858 1.4020002
-0.26326448 -0.10459366 1.4020003
-0.25448516 -0.10447478 1.4063748
-0.24790001 -0.10452001 1.4070001
-0.36383477 -0.094970964 1.4045
-0.35917908 -0.096137151 1.4020001
-0.26103908 -0.094134293 1.4020001
-0.25429443 -0.095028102 1.4053334
-0.24790001 -0.09514001 1.4070001
-0.36355117 -0.085011579 1.404143
-0.35917908 -0.085455246 1.4020001
-0.26151592 -0.085264497 1.4020002
-0.25419968 -0.085625783 1.4048126
-0.24790001 -0.085313343 1.4070001
-0.37118003 -0.079060003 1.4070001
-0.36383477 -0.07490667 1.4045
-0.35917908 -0.074773341 1.4020001
-0.26170671 -0.074773341 1.4020002
-0.25425655 -0.074938819 1.405125
-0.24723001 -0.076380007 1.4070001
-0.36487076 -0.064075232 1.4042728
-0.35917908 -0.064091429 1.4020001
-0.26170668 -0.064091437 1.4020002
-0.25437024 -0.06426286 1.4057499
-0.24790001 -0.068340003 1.4070001
-0.37118003 -0.056280002 1.4070001
-0.36495653 -0.05480985 1.4036669
-0.35917908 -0.054744765 1.4020001
-0.26037145 -0.054744765 1.4020001
-0.25446674 -0.054833509 1.4042729
-0.36517319 -0.045477461 1.4045001
-0.35917908 -0.045398097 1.4020001
-0.26037145 -0.045398097 1.4020001
-0.25403038 -0.045459997 1.4038751
-0.24790001 -0.041540004 1.4070001
-0.3638348 -0.034778096 1.4045001
-0.35917908 -0.034716193 1.4020001
-0.26170668 -0.034716193 1.4020002
-0.25391787 -0.034747146 1.4032501
-0.24790001 -0.034840003 1.4070001
-0.37118003 -0.020100001 1.4070001
-0.36510709 -0.023723377 1.4051819
-0.35917911 -0.023589209 1.4020001
-0.26279917 -0.023670131 1.4020003
-0.25391787 -0.024055716 1.4032502
-0.24790001 -0.026800001 1.4070001
-0.37118003 -0.014740001 1.4070001
-0.36510098 -0.014711959 1.4042224
-0.35917908 -0.016022857 1.4020001
-0.27105334 -0.012017144 1.4020001
-0.26366889 -0.014424859 1.4025002
-0.25406867 -0.014707857 1.4040834
-0.24790001 -0.013400001 1.4070001
-0.3642087 -0.0054977778 1.4042222
-0.35917908 -0.0053409534 1.4020001
-0.27105334 -0.0048958734 1.4020001
-0.26460931 -0.0053457143 1.4032502
-0.25442886 -0.0053561316 1.4060624
-0.247364 -0.0045560002 1.4070001
-0.3638348 0.0053504766 1.4045001
-0.35864502 0.0045398101 1.4020001
-0.26437715 0.0053409524 1.4020003
-0.25425658 0.0053516668 1.405125
-0.24790001 0.0053600003 1.4070001
-0.36316478 0.014046191 1.4045
-0.35917911 0.01468762 1.4020001
-0.26357603 0.014954668 1.4020002
-0.25421867 0.014718969 1.4049168
-0.24790001 0.012060001 1.4070001
-0.36199144 0.024694284 1.4070002
-0.35704267 0.023233145 1.4020001
-0.26387125 0.02365993 1.4023573
-0.25442767 0.024104824 1.4060624
-0.36373556 0.035286669 1.4070001
-0.35739875 0.035606351 1.4020001
-0.26380494 0.034525443 1.4020003
-0.2544851 0.034824524 1.4063748
-0.24790001 0.034840003 1.4070001
-0.37118003 0.041540004 1.4070001
-0.36333853 0.044581771 1.4062856
-0.35541031 0.045778271 1.4024547
-0.34582672 0.049403813 1.4020001
-0.27212152 0.04726743 1.4020001
-0.26454791 0.045744821 1.4043332
-0.25564227 0.043624446 1.4070001
-0.35411215 0.05288358 1.40575
-0.3446978 0.054778893 1.4028335
-0.33567888 0.056347053 1.4020001
-0.32980382 0.057415243 1.4020001
-0.2830705 0.057415243 1.4020001
-0.27574867 0.054555457 1.4047778
-0.26666 0.05226 1.4070001
-0.25594002 0.052260004 1.4070001
-0.3446227 0.061157625 1.4061667
-0.33524516 0.064110868 1.4024168
-0.32725006 0.065182954 1.4025002
-0.31511623 0.066761911 1.4020001
-0.30576953 0.067206986 1.4020001
-0.2937524 0.06542667 1.4020001
-0.28414512 0.061642859 1.4036669
-0.33440715 0.070893817 1.4045
-0.30009431 -0.39429429 1.4130001
-0.294393 -0.39378989 1.4173636
-0.28574359 -0.39357072 1.4152501
-0.275989 -0.39231226 1.4155715
-0.30009431 -0.38891146 1.4130001
-0.29596287 -0.38786003 1.419
-0.27569145 -0.38786003 1.419
-0.29202002 -0.33777431 1.4130001
-0.2893286 -0.33777431 1.4130001
-0.31354344 -0.30384058 1.4154001
-0.30542287 -0.30136859 1.419
-0.29461145 -0.30136859 1.419
-0.28244859 -0.30136859 1.419
-0.27704287 -0.30136859 1.419
-0.35930574 -0.29202002 1.4130001
-0.3068229 -0.29740289 1.4130001
-0.27428046 -0.29661021 1.4147142
-0.2657786 -0.29605716 1.4130001
-0.25164858 -0.29202002 1.4130001
-0.24578382 -0.29170191 1.4180001
-0.37164289 -0.28244859 1.419
-0.36499336 -0.28577936 1.4176667
-0.35930574 -0.28529143 1.4130001
-0.25164858 -0.28529146 1.4130001
-0.24628334 -0.28542334 1.4169999
-0.37164289 -0.27839428 1.419
-0.36523545 -0.27588171 1.4172
-0.35930574 -0.27452573 1.4130001
-0.25335667 -0.27419561 1.4157273
-0.24786001 -0.27845049 1.4170002
-0.36538064 -0.26470637 1.4156667
-0.35930574 -0.26241431 1.4130001
-0.25404131 -0.26508597 1.4168181
-0.24641049 -0.26172668 1.419
-0.37464607 -0.2533178 1.4189999
-0.36681435 -0.25487715 1.416
-0.25279003 -0.25716791 1.4137502
-0.24594623 -0.25355506 1.4168181
-0.37367004 -0.24393289 1.419
-0.36629435 -0.24509431 1.414
-0.2513217 -0.24431717 1.4142001
-0.24725288 -0.24556789 1.41675
-0.37322128 -0.23436862 1.4170001
-0.25099486 -0.23482344 1.4154001
-0.24601889 -0.23414004 1.4177999
-0.37516955 -0.22537239 1.4169999
-0.25164858 -0.22473431 1.4130001
-0.24573348 -0.22471182 1.4177144
-0.37141716 -0.21127716 1.4130001
-0.36738002 -0.21127716 1.4130001
-0.25164858 -0.2153143 1.4130001
-0.24715886 -0.21505204 1.4166
-0.37289572 -0.20462239 1.4135002
-0.36738002 -0.20724002 1.4130001
-0.25239831 -0.20418175 1.4142001
-0.24786001 -0.20602478 1.4170002
-0.37237838 -0.19512857 1.4130001
-0.25227335 -0.19616573 1.4140002
-0.24655946 -0.19444115 1.4177998
-0.37441123 -0.18611321 1.4153078
-0.25164858 -0.18705429 1.4130001
-0.24705429 -0.18529372 1.4160001
-0.37408289 -0.17556286 1.4179999
-0.36738002 -0.17494287 1.4130001
-0.24624072 -0.17540503 1.4167501
-0.37542686 -0.16460401 1.419
-0.36644942 -0.16369757 1.4138573
-0.24261214 -0.16444072 1.4152501
-0.37511799 -0.15367676 1.4189999
-0.36661547 -0.15542915 1.4142001
-0.24195945 -0.15421887 1.4130001
-0.23920287 -0.15406287 1.419
-0.37326461 -0.145684 1.419
-0.36738002 -0.14533715 1.4130001
-0.24334399 -0.14551827 1.4148
-0.23920287 -0.14730573 1.419
-0.373716 -0.13356629 1.4166
-0.36738002 -0.13591716 1.4130001
-0.24678479 -0.13485526 1.416
-0.38083717 -0.12784286 1.4130001
-0.37599146 -0.12555429 1.4137502
-0.25185999 -0.12525772 1.4142001
-0.24704716 -0.12386072 1.4175
-0.38083717 -0.11707715 1.4130001
-0.37508953 -0.11566811 1.415
-0.25164858 -0.11842287 1.4130001
-0.24661048 -0.11544476 1.4150001
-0.37240502 -0.10524357 1.41675
-0.36738002 -0.10631143 1.4130001
-0.24473087 -0.10469258 1.4166
-0.37500706 -0.094222292 1.4174001
-0.36738002 -0.090162866 1.4130001
-0.24564517 -0.094211437 1.4171999
-0.37451005 -0.084870011 1.4145001
-0.24452288 -0.085194297 1.4154
-0.37473199 -0.075194858 1.4150001
-0.24413951 -0.0750181 1.4150001
-0.37520236 -0.065331168 1.4157274
-0.24499258 -0.06441696 1.4150002
-0.37619144 -0.05374229 1.4178002
-0.25164858 -0.055174291 1.4130001
-0.24513124 -0.054201722 1.4158
-0.37524357 -0.044837862 1.416
-0.24560857 -0.045208097 1.4169999
-0.37480751 -0.035055358 1.4156251
-0.24426191 -0.035091434 1.4169999
-0.37583768 -0.02538312 1.4162728
-0.24485715 -0.023888571 1.4160001
-0.37659636 -0.014461635 1.4172858
-0.24472973 -0.015109715 1.4166
-0.38245431 -0.0067571434 1.419
-0.37512475 -0.0053034294 1.4158001
-0.24379557 -0.0057618185 1.4157274
-0.38380575 0.0040542861 1.419
-0.37520534 0.0053996434 1.4171251
-0.24426001 0.0053980951 1.4169999
-0.37484229 0.014313715 1.4177999
-0.36738002 0.016148573 1.4130001
-0.24644788 0.015172144 1.416
-0.37421477 0.024315715 1.4184999
-0.36738002 0.024222858 1.4130001
-0.24566953 0.024180764 1.4158001
-0.37387511 0.03470052 1.4162728
-0.36738002 0.032297146 1.4130001
-0.24426003 0.035087619 1.4169999
-0.37545431 0.041717146 1.4130001
-0.36738002 0.044408575 1.4130001
-0.25478861 0.047997147 1.4130001
-0.24654256 0.043913972 1.4163333
-0.35392287 0.057865717 1.4130001
-0.27279431 0.057254285 1.4145001
-0.26504287 0.056013472 1.4147142
-0.25433362 0.05481394 1.4167501
-0.24731143 0.052705716 1.419
-0.35392287 0.060557146 1.4130001
-0.34723148 0.065136194 1.4150001
-0.28125429 0.065940008 1.4130001
-0.27664861 0.06342762 1.4170001
-0.266772 0.063517146 1.419
-0.29450002 -0.3922143 1.4250001
-0.2877143 -0.3922143 1.4250001
-0.27821431 -0.3922143 1.4250001
-0.29395717 -0.38732859 1.4250001
-0.28558165 -0.38794902 1.4250001
-0.27550003 -0.38814288 1.4250001
-0.29178575 -0.33657146 1.4250001
-0.28907144 -0.33521432 1.4250001
-0.3189286 -0.31078574 1.4250001
-0.31214288 -0.3067143 1.4250001
-0.30535716 -0.30535716 1.4250001
-0.29857147 -0.30400002 1.4250001
-0.28635716 -0.30264288 1.4250001
-0.27414286 -0.30400002 1.4250001
-0.24111907 -0.29359528 1.4250001
-0.37423217 -0.2853393 1.4250001
-0.24176535 -0.28364289 1.4250001
-0.23750001 -0.2877143 1.4250001
-0.37467581 -0.27341211 1.425
-0.25107145 -0.27142859 1.4250001
-0.24401429 -0.27387145 1.4249998
-0.38135716 -0.26328573 1.4250001
-0.37592858 -0.26464283 1.4250001
-0.25107145 -0.26735717 1.4250001
-0.24323018 -0.26524603 1.4250001
-0.38135716 -0.25921431 1.4250001
-0.37592861 -0.25921431 1.4250001
-0.24137758 -0.25533673 1.4250001
-0.38135716 -0.24292859 1.4250001
-0.37728575 -0.24428573 1.4250001
-0.24238575 -0.24374287 1.4250001
-0.38135716 -0.23478574 1.4250001
-0.37864289 -0.23207144 1.4250001
-0.24184287 -0.23478575 1.4250001
-0.38135716 -0.22800002 1.4250001
-0.24075715 -0.22447145 1.4250001
-0.24202384 -0.2139762 1.4250001
-0.24292861 -0.20492858 1.4250001
-0.24157147 -0.19542857 1.4250001
-0.23750001 -0.19135715 1.4250001
-0.38135716 -0.18321431 1.4250001
-0.24202384 -0.18411906 1.4250001
-0.23750001 -0.18457144 1.4250001
-0.3827143 -0.17507143 1.4250001
-0.24202383 -0.1759762 1.4250001
-0.38407147 -0.16530001 1.4250001
-0.2402143 -0.16557144 1.4250001
-0.3822619 -0.15788098 1.4250001
-0.23750001 -0.15200001 1.4250001
-0.37728575 -0.14385715 1.4250001
-0.2402143 -0.14385715 1.4250001
-0.23750001 -0.14521429 1.4250001
-0.38135716 -0.13571429 1.4250001
-0.37773812 -0.13888095 1.4250001
-0.24157146 -0.13571429 1.4250001
-0.23750001 -0.13571429 1.4250001
-0.24238572 -0.12540001 1.4250001
-0.23750001 -0.12350001 1.4250001
-0.38135716 -0.11264286 1.4250001
-0.24157147 -0.11535715 1.4250001
-0.38135716 -0.10585715 1.4250001
-0.37864289 -0.10585715 1.4250001
-0.24111909 -0.10676191 1.4250001
-0.38135716 -0.099071436 1.4250001
-0.24137758 -0.095581643 1.4250001
-0.2402143 -0.084142864 1.4250001
-0.23750001 -0.085500002 1.4250001
-0.2402143 -0.074642867 1.4250001
-0.38135716 -0.062428575 1.4250001
-0.2402143 -0.065142855 1.4250001
-0.23750001 -0.061071433 1.4250001
-0.38135716 -0.05428572 1.4250001
-0.2402143 -0.054285716 1.4250001
-0.23750001 -0.054285716 1.4250001
-0.38135716 -0.046142861 1.4250001
-0.2402143 -0.044785719 1.4250001
-0.23750001 -0.044785719 1.4250001
-0.2402143 -0.035285715 1.4250001
-0.23750001 -0.035285715 1.4250001
-0.2402143 -0.024428574 1.4250001
-0.23633674 -0.024234695 1.4250001
-0.2402143 -0.014928572 1.4250001
-0.23750001 -0.017642858 1.4250001
-0.38515717 -0.0040714289 1.4250001
-0.2402143 -0.0054285717 1.4250001
-0.38407144 0.0054285717 1.4250001
-0.2402143 0.0054285717 1.4250001
-0.23750001 0.0081428578 1.4250001
-0.3827143 0.014928572 1.4250001
-0.37864289 0.017642858 1.4250001
-0.24157144 0.014928572 1.4250001
-0.23750001 0.014928572 1.4250001
-0.38135716 0.024428574 1.4250001
-0.24075718 0.024700003 1.4250001
-0.23750001 0.021714289 1.4250001
-0.38135716 0.035285719 1.4250001
-0.2402143 0.035285715 1.4250001
-0.24238572 0.045328572 1.4250001
-0.24428573 0.050214291 1.4250001
-0.27210715 0.063107148 1.4250001
-0.26464286 0.061071433 1.4250001
-0.29477429 -0.38488671 1.4336667
-0.28460184 -0.38423043 1.4348183
-0.27604696 -0.38396946 1.4318572
-0.28603145 -0.3790943 1.437
-0.31614003 -0.35582858 1.437
-0.30382288 -0.34351146 1.437
-0.29561144 -0.34761715 1.437
-0.33390003 -0.32844859 1.4310001
-0.31525624 -0.31253052 1.4330001
-0.30519146 -0.31249049 1.4369999
-0.28055716 -0.31066573 1.437
-0.3120943 -0.30936858 1.4310001
-0.30664289 -0.30936858 1.4310001
-0.2902886 -0.30391717 1.4310001
-0.28211144 -0.30664289 1.4310001
-0.27938575 -0.30664289 1.4310001
-0.24940288 -0.29846573 1.4310001
-0.23713717 -0.29165146 1.4310001
-0.38513431 -0.28133428 1.434
-0.23430313 -0.28416857 1.4326364
-0.22855145 -0.28055716 1.437
-0.38241777 -0.27556974 1.4310001
-0.23494233 -0.27533013 1.4326
-0.22855145 -0.27508286 1.4369999
-0.38296288 -0.26848286 1.4310001
-0.23553696 -0.26496992 1.4346924
-0.23707215 -0.25415361 1.4347501
-0.23653774 -0.24500915 1.434
-0.23634714 -0.23498525 1.4345001
-0.2362413 -0.22456183 1.4353637
-0.23634002 -0.21478286 1.4328001
-0.23489718 -0.20485716 1.434
-0.23397146 -0.19486476 1.4325
-0.22718287 -0.19296856 1.4370002
-0.23355976 -0.18518728 1.4326364
-0.22627048 -0.18384479 1.4370002
-0.3856886 -0.17035715 1.4310001
-0.2354833 -0.17520122 1.434
-0.2258143 -0.17563336 1.4369999
-0.2362413 -0.16441327 1.4353638
-0.22034001 -0.16696572 1.437
-0.23480114 -0.15480745 1.4334
-0.22429368 -0.15434445 1.4370002
-0.23312907 -0.14451478 1.4315
-0.2273784 -0.14565513 1.4370002
-0.23324184 -0.13418262 1.4337274
-0.22763908 -0.13320763 1.4370002
-0.23414521 -0.12520026 1.4331819
-0.22581428 -0.12454001 1.4370002
-0.23447251 -0.11451107 1.4313749
-0.2267267 -0.1154162 1.4370002
-0.38730574 -0.10264286 1.437
-0.23465288 -0.10505002 1.4325
-0.22855145 -0.10538 1.4369999
-0.38730574 -0.099905722 1.437
-0.23465291 -0.095500015 1.4325
-0.22855145 -0.098537147 1.437
-0.23384024 -0.08431758 1.4333078
-0.22718287 -0.087588578 1.437
-0.23522522 -0.07485117 1.4337274
-0.22398955 -0.073446669 1.4369999
-0.23439717 -0.06576515 1.4326
-0.22565715 -0.065648563 1.4360002
-0.21942002 -0.064054288 1.4310001
-0.23329002 -0.054570004 1.4325
-0.22547874 -0.0553426 1.4364548
-0.23347905 -0.045059368 1.4336667
-0.22855145 -0.043794289 1.437
-0.23320954 -0.035459049 1.432
-0.22855145 -0.03695143 1.4369999
-0.23224729 -0.024693655 1.4316667
-0.22718287 -0.028740002 1.437
-0.2347023 -0.015010285 1.4328001
-0.23610003 -0.0054590483 1.4330001
-0.23424289 0.0050702048 1.4335716
-0.22855145 0.0095800003 1.437
-0.3856886 0.01499143 1.4310001
-0.23326318 0.015005397 1.4323334
-0.22603716 0.015388572 1.4362501
-0.38568863 0.025894286 1.4310001
-0.23417309 0.024958776 1.4331428
-0.2267267 0.022353336 1.4370002
-0.38649717 0.032774288 1.434
-0.23572992 0.035596706 1.4333076
-0.24122573 0.047700003 1.4310001
-0.2369751 0.04466572 1.4335715
-0.24486001 0.053151429 1.4310001
-0.23850001 0.050425716 1.4310001
-0.30297145 -0.3828429 1.4460001
-0.29571944 -0.38209319 1.4442002
-0.28477001 -0.38176006 1.4445
-0.30222002 -0.37812003 1.4490001
-0.29566503 -0.37708497 1.4490002
-0.28752431 -0.37556574 1.4445
-0.31406736 -0.36290494 1.4472858
-0.32158285 -0.35594001 1.4430001
-0.31396788 -0.35532358 1.4475001
-0.30572516 -0.35447547 1.4460001
-0.29479605 -0.35547033 1.4478003
-0.31050003 -0.34638003 1.449
-0.30456161 -0.34467778 1.4470001
-0.29822001 -0.34219718 1.4430001
-0.33211908 -0.33211908 1.4430002
-0.32741863 -0.33292431 1.4445
-0.31050003 -0.33534002 1.449
-0.30445373 -0.33561316 1.4478002
-0.29533121 -0.33432651 1.4435453
-0.28889859 -0.33429575 1.4445
-0.33257717 -0.32845432 1.4430001
-0.32615337 -0.32890955 1.4450001
-0.31050003 -0.32430002 1.449
-0.30523095 -0.32580549 1.4490002
-0.296976 -0.32650802 1.4490002
-0.31467575 -0.31743291 1.4460001
-0.30443388 -0.3166388 1.4464287
-0.29670003 -0.31464005 1.4490002
-0.28704002 -0.31188002 1.4490001
-0.30096859 -0.30921429 1.4430001
-0.29684573 -0.30921429 1.4430001
-0.22830193 -0.28250572 1.4470001
-0.22692382 -0.27424479 1.447
-0.23263602 -0.26732975 1.4454
-0.22619361 -0.26475787 1.4460001
-0.23254061 -0.2559343 1.4448
-0.22517948 -0.25572184 1.4457272
-0.23135716 -0.24513145 1.4460001
-0.22494002 -0.24564002 1.4490002
-0.23135716 -0.23457144 1.4460001
-0.22631145 -0.23561357 1.4467502
-0.23148534 -0.22519307 1.4455717
-0.22770001 -0.22494 1.449
-0.23153658 -0.21667373 1.4454
-0.22699858 -0.21322575 1.4467502
-0.22577605 -0.20480244 1.4462308
-0.22584403 -0.19613658 1.4441999
-0.2239089 -0.18448095 1.4443334
-0.21851145 -0.18003143 1.4430001
-0.2322543 -0.17316002 1.4430001
-0.22556801 -0.17467944 1.4441999
-0.21942002 -0.17802002 1.4490001
-0.2322543 -0.16491431 1.4430001
-0.2260392 -0.16457023 1.4434286
-0.2322543 -0.15804286 1.4430001
-0.22492573 -0.15476286 1.4445
-0.22431718 -0.1449562 1.4450001
-0.22529431 -0.13562 1.4442002
-0.22431906 -0.11422002 1.4450001
-0.22639373 -0.10370459 1.4442002
-0.22559872 -0.094826773 1.4468184
-0.22675717 -0.084289528 1.443
-0.2322543 -0.078334294 1.4430001
-0.22767335 -0.076501913 1.443
-0.22538286 -0.050848573 1.4430001
-0.22607575 -0.045074292 1.44525
-0.22594827 -0.034419365 1.4456668
-0.2259243 -0.024538571 1.4450001
-0.23105812 -0.013322857 1.4470001
-0.22750917 -0.015165143 1.4478003
-0.23148534 -0.0060983677 1.4455717
-0.22654574 -0.0044842861 1.4482502
-0.21942002 -0.0013800001 1.4490001
-0.22541544 0.005228763 1.4450002
-0.21911716 0.0068904771 1.4470001
-0.22217715 0.014442858 1.4445
-0.21942002 0.012420001 1.4490001
-0.22419257 0.026134288 1.4442
-0.23225431 0.035273336 1.4430002
-0.22814287 0.033508573 1.4460001
-0.23135716 0.041311432 1.4460001
-0.3076286 -0.38107145 1.455
-0.30426326 -0.37552857 1.455
-0.29585001 -0.37345004 1.455
-0.32287145 -0.36167145 1.455
-0.31178573 -0.36721432 1.455
-0.30539015 -0.36593515 1.455
-0.29515716 -0.36582854 1.455
-0.28906003 -0.36555141 1.455
-0.32010001 -0.35197145 1.455
-0.31594288 -0.35197145 1.455
-0.30208573 -0.35890001 1.455
-0.2979286 -0.35890001 1.455
-0.31455716 -0.34504288 1.455
-0.33118573 -0.33950001 1.455
-0.32287145 -0.33257145 1.455
-0.31501907 -0.33349526 1.455
-0.28961429 -0.33118573 1.455
-0.32176286 -0.32453433 1.455
-0.31594288 -0.32564291 1.455
-0.30347145 -0.32564288 1.455
-0.29423335 -0.32425717 1.455
-0.28961429 -0.32841432 1.455
-0.29377145 -0.31594288 1.455
-0.28753573 -0.31663576 1.455
-0.22420859 -0.2236543 1.455
-0.22365431 -0.21644859 1.455
-0.22476287 -0.10559144 1.455
-0.22310002 -0.051271431 1.455
-0.22240716 -0.043650005 1.455
-0.22217621 -0.036490481 1.455
-0.22402382 -0.014319047 1.455
-0.22356193 -0.0060047624 1.455
-0.22448574 0.035566669 1.455
-0.31393075 -0.37413716 1.4617501
-0.30750573 -0.37290287 1.4610001
-0.28802574 -0.37151146 1.4610001
-0.30194002 -0.36455429 1.4610001
-0.28802574 -0.36872861 1.4610001
-0.33112288 -0.35068288 1.4670001
-0.32598493 -0.35422412 1.4618572
-0.33112288 -0.34788859 1.4670001
-0.32546043 -0.34497648 1.4637693
-0.31724572 -0.3450743 1.4610001
-0.32373908 -0.3362619 1.4610001
-0.31724572 -0.33811715 1.4610001
-0.28695142 -0.3325305 1.4650002
-0.32420287 -0.3297686 1.4610001
-0.2922 -0.32420287 1.4610001
-0.28802574 -0.32559431 1.4610001
-0.22680287 -0.22123715 1.4610001
-0.22402002 -0.043134287 1.4610001
-0.22123715 -0.0083485721 1.4610001
-0.22402002 0.037568573 1.4610001
-0.22710954 0.04040667 1.4630002
-0.28478003 -0.33247715 1.473
-0.29132667 -0.32873622 1.473
-0.22866572 -0.018237144 1.473
-0.22586001 0.043488573 1.473
-0.28895241 -0.33123812 1.48
-0.28895241 -0.32560003 1.48
